ply
format ascii 1.0
element vertex 1237
property float x
property float y
property float z
property uchar red
property uchar green
property uchar blue
end_header
0.003506 0.081407 0.236199 171 175 178
0.003099 0.081304 0.237151 168 173 176
0.002692 0.081201 0.238103 171 176 179
0.002285 0.081099 0.239054 170 175 178
0.001878 0.080996 0.240006 169 174 177
0.001471 0.080893 0.240957 169 174 177
0.001821 0.080228 0.242275 168 173 176
0.001415 0.080125 0.243224 167 172 175
0.001010 0.080023 0.244172 168 173 176
0.000604 0.079921 0.245121 170 175 178
0.000198 0.079819 0.246069 166 171 174
-0.000207 0.079716 0.247018 168 173 176
-0.000613 0.079614 0.247967 166 171 174
-0.001019 0.079512 0.248915 164 169 172
-0.001424 0.079409 0.249864 166 171 174
-0.001830 0.079307 0.250813 165 170 173
-0.002236 0.079205 0.251761 164 169 172
-0.002641 0.079102 0.252710 163 168 171
-0.003047 0.079000 0.253659 163 168 171
-0.003453 0.078898 0.254607 163 168 171
-0.003858 0.078796 0.255556 162 167 170
-0.004264 0.078693 0.256504 162 167 170
-0.003893 0.078033 0.257772 161 166 169
-0.004297 0.077931 0.258717 161 166 169
-0.004701 0.077829 0.259663 158 163 166
-0.004325 0.077170 0.260918 161 166 169
-0.004728 0.077068 0.261861 161 165 168
-0.005131 0.076967 0.262804 159 163 166
-0.005534 0.076865 0.263746 159 163 166
-0.005937 0.076763 0.264689 161 165 168
-0.006341 0.076662 0.265632 162 163 167
-0.006744 0.076560 0.266574 160 161 165
-0.007147 0.076458 0.267517 161 162 166
-0.007550 0.076357 0.268460 160 161 165
-0.007953 0.076255 0.269403 160 161 165
-0.008356 0.076153 0.270345 158 159 163
-0.008759 0.076052 0.271288 159 160 165
-0.008366 0.075397 0.272505 156 157 162
-0.008768 0.075296 0.273444 153 154 159
-0.009170 0.075194 0.274384 154 155 160
-0.009572 0.075093 0.275324 152 153 158
-0.009974 0.074992 0.276264 152 156 159
-0.009573 0.074339 0.277463 151 155 158
-0.009974 0.074238 0.278399 149 153 156
-0.010374 0.074137 0.279336 145 149 152
-0.010775 0.074036 0.280273 147 148 152
-0.011176 0.073935 0.281210 145 146 150
-0.011576 0.073834 0.282146 142 143 145
-0.011977 0.073733 0.283083 139 139 139
-0.011566 0.073082 0.284258 136 135 133
-0.011965 0.072981 0.285192 136 132 129
-0.012365 0.072881 0.286126 135 130 127
-0.011949 0.072232 0.287290 133 128 124
-0.012347 0.072131 0.288220 132 125 119
-0.012745 0.072031 0.289151 129 122 114
-0.013143 0.071931 0.290082 129 122 114
-0.013541 0.071830 0.291013 125 118 110
-0.013939 0.071730 0.291944 126 119 111
-0.013515 0.071083 0.293086 124 115 106
-0.014735 0.071529 0.293805 122 113 104
-0.015133 0.071429 0.294736 124 116 105
-0.014705 0.070783 0.295870 124 116 105
-0.015102 0.070683 0.296798 122 114 101
-0.015499 0.070583 0.297726 123 113 101
-0.015895 0.070483 0.298654 122 112 100
-0.015461 0.069838 0.299773 126 114 100
-0.015856 0.069739 0.300698 124 112 98
-0.016252 0.069639 0.301622 122 110 96
-0.016647 0.069539 0.302547 121 109 95
-0.017043 0.069439 0.303472 120 108 94
-0.017438 0.069340 0.304397 125 113 99
-0.017834 0.069240 0.305322 122 110 96
-0.018229 0.069140 0.306247 121 109 95
-0.018625 0.069040 0.307172 124 112 98
-0.019020 0.068941 0.308097 118 106 92
-0.019416 0.068841 0.309022 121 109 95
-0.019811 0.068741 0.309947 122 110 96
-0.019360 0.068101 0.311027 122 110 96
-0.019754 0.068002 0.311949 122 108 95
-0.020149 0.067902 0.312871 121 107 94
-0.020543 0.067803 0.313793 123 109 96
-0.020937 0.067703 0.314715 122 108 95
-0.020478 0.067065 0.315777 121 107 94
-0.020871 0.066966 0.316696 120 106 93
-0.021264 0.066867 0.317615 120 106 93
-0.021657 0.066768 0.318534 119 105 92
-0.022050 0.066669 0.319453 118 104 91
-0.022443 0.066570 0.320372 118 105 89
-0.021975 0.065934 0.321414 116 103 87
-0.022367 0.065835 0.322330 116 103 87
-0.022759 0.065736 0.323246 116 103 87
-0.023151 0.065637 0.324162 115 102 86
-0.023542 0.065539 0.325078 114 101 84
-0.023934 0.065440 0.325994 114 101 85
-0.024326 0.065341 0.326910 112 99 83
-0.023848 0.064708 0.327929 108 95 79
-0.024238 0.064609 0.328842 103 90 74
-0.023756 0.063977 0.329851 101 85 70
-0.023272 0.063345 0.330854 91 77 64
-0.022785 0.062714 0.331852 75 62 53
-0.022296 0.062083 0.332843 49 40 33
-0.022681 0.061986 0.333744 38 33 29
-0.022188 0.061357 0.334727 63 63 63
-0.021692 0.060728 0.335703 86 89 94
-0.021194 0.060099 0.336674 82 89 97
-0.020693 0.059472 0.337639 81 94 100
-0.019306 0.058314 0.338667 79 93 96
-0.018799 0.057688 0.339617 83 94 98
-0.018290 0.057062 0.340561 82 89 95
-0.017777 0.056437 0.341499 87 92 98
-0.016374 0.055284 0.342489 86 90 99
-0.014965 0.054131 0.343467 88 95 105
-0.015334 0.054038 0.344330 86 95 104
-0.013918 0.052887 0.345290 88 97 106
-0.013391 0.052266 0.346193 87 96 105
-0.012861 0.051646 0.347089 86 95 102
-0.012328 0.051026 0.347980 84 93 100
-0.011793 0.050407 0.348865 88 97 104
-0.011256 0.049789 0.349743 85 96 100
-0.010716 0.049171 0.350616 84 95 101
-0.010173 0.048554 0.351483 86 97 103
-0.009628 0.047938 0.352344 86 97 103
-0.009080 0.047322 0.353199 83 94 100
-0.008530 0.046707 0.354049 87 98 104
-0.007977 0.046092 0.354892 87 97 106
-0.007422 0.045478 0.355729 84 94 103
-0.006864 0.044865 0.356561 85 94 103
-0.006304 0.044253 0.357386 86 95 104
-0.005741 0.043641 0.358206 87 95 106
-0.005175 0.043029 0.359019 85 95 105
-0.004607 0.042419 0.359827 86 96 106
-0.004037 0.041809 0.360629 86 96 105
-0.003464 0.041199 0.361424 88 98 107
-0.002888 0.040590 0.362214 85 95 104
-0.002310 0.039982 0.362998 85 95 104
-0.001730 0.039375 0.363776 85 96 102
-0.002068 0.039289 0.364568 85 96 102
-0.001484 0.038683 0.365337 84 95 101
-0.001821 0.038598 0.366125 83 94 100
-0.002158 0.038513 0.366914 85 96 102
-0.001568 0.037908 0.367671 82 93 99
-0.005530 0.037662 0.374800 68 75 81
-0.005867 0.037577 0.375588 64 72 75
-0.006205 0.037492 0.376377 64 72 75
-0.006542 0.037407 0.377165 65 73 76
-0.007822 0.037838 0.378024 64 72 75
-0.008161 0.037753 0.378815 64 72 75
-0.010391 0.038698 0.379758 63 71 74
-0.011679 0.039128 0.380634 62 70 73
-0.012969 0.039556 0.381516 64 69 75
-0.014263 0.039984 0.382404 63 68 74
-0.015558 0.040411 0.383298 64 69 75
-0.016856 0.040838 0.384198 63 68 74
-0.018157 0.041263 0.385104 62 67 71
-0.019460 0.041689 0.386016 61 66 70
-0.020766 0.042113 0.386933 60 65 69
-0.022075 0.042537 0.387857 60 65 69
-0.022427 0.042448 0.388681 62 67 71
-0.023739 0.042871 0.389613 57 62 66
-0.025054 0.043294 0.390552 60 63 68
-0.026371 0.043716 0.391496 62 65 70
-0.027691 0.044137 0.392446 56 64 67
-0.029013 0.044557 0.393403 57 64 70
-0.030338 0.044977 0.394365 60 67 73
-0.031665 0.045396 0.395333 60 67 73
-0.032995 0.045815 0.396307 60 65 71
-0.034328 0.046233 0.397287 59 64 68
-0.035663 0.046650 0.398272 58 66 69
-0.037973 0.047575 0.399402 60 68 70
-0.039314 0.047991 0.400403 56 65 72
-0.040658 0.048406 0.401409 60 69 76
-0.042004 0.048820 0.402422 56 64 67
-0.043353 0.049234 0.403440 55 59 62
-0.043726 0.049140 0.404312 41 43 42
-0.045078 0.049553 0.405339 39 38 36
-0.046574 0.049175 0.408837 112 116 117
-0.046948 0.049081 0.409712 114 118 121
0.021918 0.089903 0.185799 167 168 163
0.022191 0.089215 0.187294 168 169 164
0.021780 0.089112 0.188254 168 169 164
0.021370 0.089008 0.189215 167 168 163
0.020959 0.088905 0.190175 169 170 165
0.021238 0.088219 0.191655 168 169 164
0.020828 0.088115 0.192612 167 168 163
0.020419 0.088012 0.193570 169 170 165
0.020009 0.087909 0.194528 171 172 167
0.020295 0.087224 0.195992 172 173 168
0.019190 0.087702 0.196443 172 172 170
0.019478 0.087018 0.197902 172 172 170
0.019070 0.086915 0.198856 174 174 174
0.018662 0.086812 0.199811 172 172 172
0.018254 0.086709 0.200765 173 173 173
0.017845 0.086607 0.201720 173 173 173
0.017437 0.086504 0.202674 174 174 174
0.017029 0.086401 0.203629 174 174 174
0.016621 0.086298 0.204583 173 173 173
0.016212 0.086195 0.205538 173 173 173
0.016513 0.085514 0.206967 174 174 174
0.016106 0.085411 0.207919 171 171 171
0.015699 0.085309 0.208871 172 172 172
0.015292 0.085206 0.209822 173 173 175
0.014885 0.085104 0.210774 172 172 174
0.014478 0.085001 0.211725 173 173 175
0.013355 0.085474 0.212220 173 173 175
0.012947 0.085371 0.213175 173 173 175
0.013257 0.084693 0.214580 173 173 175
0.012851 0.084590 0.215532 172 172 174
0.012444 0.084488 0.216483 172 172 174
0.012037 0.084385 0.217435 172 172 174
0.012354 0.083709 0.218826 173 173 175
0.011948 0.083606 0.219774 173 173 175
0.011542 0.083504 0.220723 172 172 174
0.011137 0.083402 0.221672 171 171 173
0.010731 0.083299 0.222620 169 170 174
0.010325 0.083197 0.223569 169 170 174
0.009920 0.083095 0.224518 172 173 177
0.009514 0.082993 0.225466 173 172 177
0.009108 0.082890 0.226415 173 172 177
0.009438 0.082217 0.227776 173 174 178
0.009033 0.082115 0.228722 173 174 178
0.008629 0.082013 0.229667 173 174 178
0.008225 0.081911 0.230613 171 175 176
0.007080 0.082379 0.231158 171 175 176
0.006674 0.082276 0.232107 170 174 175
0.006268 0.082174 0.233055 170 174 177
0.005863 0.082072 0.234004 170 174 177
0.005457 0.081969 0.234952 170 174 177
0.005051 0.081867 0.235901 171 175 178
0.005394 0.081197 0.237233 171 175 178
0.004989 0.081095 0.238178 170 175 178
0.004585 0.080993 0.239124 168 173 176
0.004181 0.080891 0.240070 170 175 178
0.004529 0.080222 0.241386 168 173 176
0.004126 0.080121 0.242329 168 173 176
0.003723 0.080019 0.243272 170 175 178
0.003320 0.079917 0.244214 168 173 176
0.002917 0.079816 0.245157 167 172 175
0.002514 0.079714 0.246100 165 170 173
0.002110 0.079612 0.247043 167 172 175
0.001707 0.079511 0.247985 167 172 175
0.001304 0.079409 0.248928 167 172 175
0.000901 0.079308 0.249871 164 169 172
0.000498 0.079206 0.250813 164 169 172
0.000095 0.079104 0.251756 164 169 172
-0.000308 0.079003 0.252699 163 168 171
0.000058 0.078338 0.253974 161 165 168
-0.000344 0.078237 0.254914 162 166 169
-0.000746 0.078136 0.255853 161 165 168
-0.001148 0.078034 0.256793 160 165 168
-0.001550 0.077933 0.257733 160 165 168
-0.001951 0.077832 0.258673 160 165 168
-0.002353 0.077730 0.259612 160 165 168
-0.002755 0.077629 0.260552 159 164 167
-0.002377 0.076968 0.261801 158 163 166
-0.002778 0.076867 0.262737 158 162 165
-0.003178 0.076766 0.263674 160 164 167
-0.003579 0.076665 0.264611 161 165 168
-0.003980 0.076564 0.265548 159 163 166
-0.004380 0.076463 0.266485 160 161 165
-0.004781 0.076362 0.267421 160 161 165
-0.005182 0.076261 0.268358 159 160 164
-0.005582 0.076160 0.269295 161 162 166
-0.005192 0.075502 0.270514 160 161 165
-0.005591 0.075401 0.271448 158 159 163
-0.005990 0.075300 0.272381 158 159 163
-0.006390 0.075199 0.273315 156 157 162
-0.006789 0.075099 0.274249 157 158 163
-0.007188 0.074998 0.275183 153 154 159
-0.007588 0.074897 0.276117 153 154 159
-0.007187 0.074242 0.277312 151 155 158
-0.007585 0.074142 0.278243 148 152 155
-0.007983 0.074041 0.279173 146 150 153
-0.008381 0.073941 0.280104 144 148 151
-0.008779 0.073840 0.281035 144 148 151
-0.009177 0.073740 0.281966 143 144 146
-0.008768 0.073087 0.283140 139 140 142
-0.009165 0.072987 0.284068 138 138 138
-0.009561 0.072887 0.284996 136 135 133
-0.009958 0.072787 0.285924 136 132 129
-0.010355 0.072686 0.286852 135 130 127
-0.009938 0.072035 0.288009 133 128 124
-0.010333 0.071935 0.288934 131 124 118
-0.010729 0.071836 0.289858 130 123 115
-0.011124 0.071736 0.290783 128 121 113
-0.011520 0.071636 0.291708 127 120 112
-0.011915 0.071536 0.292633 125 118 110
-0.011489 0.070887 0.293769 124 117 107
-0.012707 0.071337 0.294483 124 115 106
-0.013102 0.071237 0.295408 123 114 105
-0.012672 0.070589 0.296535 122 114 103
-0.013067 0.070490 0.297457 124 116 103
-0.013461 0.070390 0.298379 125 115 103
-0.013026 0.069743 0.299494 124 114 102
-0.013419 0.069644 0.300413 122 113 98
-0.013812 0.069545 0.301332 123 114 99
-0.014205 0.069446 0.302251 120 111 96
-0.014598 0.069347 0.303170 123 114 99
-0.014991 0.069248 0.304089 122 113 98
-0.015384 0.069149 0.305008 122 113 98
-0.015777 0.069050 0.305927 121 112 97
-0.016170 0.068951 0.306846 120 111 96
-0.015722 0.068307 0.307931 122 110 96
-0.016114 0.068208 0.308847 122 110 96
-0.016506 0.068109 0.309763 123 111 97
-0.016897 0.068011 0.310679 119 107 93
-0.017289 0.067912 0.311595 121 107 94
-0.017681 0.067813 0.312511 123 109 96
-0.018073 0.067714 0.313427 121 107 94
-0.018464 0.067615 0.314343 121 107 94
-0.018005 0.066975 0.315402 119 105 92
-0.018396 0.066876 0.316315 119 105 92
-0.018786 0.066778 0.317228 119 105 92
-0.019177 0.066679 0.318141 120 106 93
-0.019567 0.066581 0.319055 119 105 92
-0.019101 0.065942 0.320096 119 105 92
-0.019490 0.065844 0.321006 118 105 89
-0.019879 0.065746 0.321916 117 104 88
-0.020268 0.065648 0.322826 116 104 88
-0.020657 0.065549 0.323736 117 105 89
-0.021047 0.065451 0.324646 115 103 87
-0.021436 0.065353 0.325556 114 101 84
-0.021825 0.065255 0.326466 113 100 83
-0.022214 0.065157 0.327376 113 100 84
-0.021735 0.064521 0.328388 112 99 83
-0.022123 0.064423 0.329295 111 98 82
-0.022511 0.064326 0.330202 109 96 80
-0.022026 0.063691 0.331201 104 90 77
-0.021540 0.063058 0.332195 99 85 74
-0.021925 0.062960 0.333096 92 80 68
-0.022310 0.062863 0.333997 75 65 55
-0.021818 0.062231 0.334979 51 44 36
-0.021324 0.061599 0.335955 31 27 24
-0.020827 0.060968 0.336925 58 58 60
-0.020327 0.060337 0.337889 85 90 96
-0.019825 0.059707 0.338847 81 88 94
-0.019321 0.059078 0.339799 84 91 99
-0.018813 0.058450 0.340745 82 91 98
-0.017417 0.057289 0.341745 80 89 96
-0.016904 0.056662 0.342677 84 93 100
-0.015499 0.055503 0.343656 86 95 102
-0.014979 0.054877 0.344572 85 96 100
-0.014457 0.054253 0.345483 86 95 102
-0.013932 0.053629 0.346388 85 94 101
-0.013405 0.053005 0.347286 85 94 101
-0.011979 0.051852 0.348218 85 94 99
-0.011446 0.051230 0.349102 85 94 99
-0.011807 0.051139 0.349947 84 93 100
-0.010370 0.049988 0.350852 85 96 102
-0.009829 0.049368 0.351718 84 95 101
-0.009285 0.048749 0.352578 83 94 100
-0.008739 0.048130 0.353433 85 96 102
-0.008190 0.047512 0.354281 87 98 104
-0.007638 0.046894 0.355123 86 97 103
-0.007084 0.046278 0.355960 85 95 104
-0.006527 0.045662 0.356791 86 96 105
-0.005968 0.045046 0.357615 87 96 105
-0.005407 0.044431 0.358434 86 95 104
-0.004842 0.043817 0.359247 86 96 106
-0.004276 0.043203 0.360053 85 95 105
-0.004620 0.043116 0.360860 86 96 105
-0.003134 0.041978 0.361649 86 97 103
-0.002560 0.041367 0.362438 84 95 101
-0.002901 0.041281 0.363236 85 96 102
-0.002323 0.040670 0.364016 86 97 103
-0.001742 0.040060 0.364790 84 95 101
-0.002081 0.039974 0.365582 83 94 100
-0.001496 0.039365 0.366347 84 95 101
-0.001833 0.039280 0.367136 83 94 100
-0.001245 0.038672 0.367892 83 94 100
-0.003933 0.037994 0.374177 67 74 80
-0.004269 0.037910 0.374962 65 72 78
-0.005543 0.038345 0.375810 66 74 77
-0.005880 0.038260 0.376598 64 72 75
-0.007158 0.038694 0.377454 64 72 75
-0.007497 0.038609 0.378246 62 70 73
-0.008778 0.039042 0.379111 62 70 73
-0.010063 0.039475 0.379982 61 69 72
-0.011349 0.039907 0.380859 61 69 72
-0.012639 0.040338 0.381742 65 70 74
-0.013931 0.040769 0.382631 62 67 73
-0.016175 0.041716 0.383614 62 67 73
-0.017473 0.042145 0.384518 62 67 73
-0.018774 0.042573 0.385427 61 66 70
-0.020077 0.043001 0.386343 60 65 69
-0.021383 0.043428 0.387264 60 65 69
-0.021735 0.043339 0.388088 61 66 70
-0.023045 0.043766 0.389019 63 68 72
-0.024357 0.044191 0.389955 61 66 70
-0.025672 0.044616 0.390897 62 65 70
-0.026989 0.045040 0.391845 62 65 70
-0.028309 0.045464 0.392799 60 65 68
-0.028668 0.045374 0.393638 58 63 67
-0.030956 0.046309 0.394725 56 64 67
-0.032284 0.046731 0.395697 57 64 70
-0.033614 0.047152 0.396675 58 65 71
-0.034946 0.047573 0.397659 54 61 67
-0.036281 0.047993 0.398648 56 63 69
-0.037619 0.048412 0.399644 55 63 66
-0.039931 0.049342 0.400787 55 62 68
-0.041275 0.049759 0.401797 46 51 57
-0.041646 0.049665 0.402666 31 35 38
-0.042994 0.050082 0.403685 30 30 30
-0.044344 0.050498 0.404710 45 41 38
-0.044718 0.050404 0.405585 73 68 64
-0.045092 0.050309 0.406459 87 83 80
-0.045466 0.050215 0.407334 106 106 106
-0.045230 0.049518 0.408915 108 112 113
-0.045603 0.049424 0.409786 109 113 116
-0.045976 0.049330 0.410658 110 114 117
-0.046349 0.049236 0.411529 114 115 117
0.023679 0.089667 0.187136 168 169 163
0.023953 0.088977 0.188624 168 169 164
0.023545 0.088874 0.189579 168 169 164
0.023137 0.088771 0.190533 169 170 165
0.023416 0.088082 0.192009 169 170 165
0.023009 0.087980 0.192961 169 170 165
0.022602 0.087877 0.193913 170 171 166
0.022886 0.087189 0.195377 171 172 167
0.022480 0.087087 0.196325 169 170 165
0.022075 0.086985 0.197274 171 172 167
0.021669 0.086883 0.198223 170 171 166
0.021263 0.086780 0.199171 171 171 169
0.020858 0.086678 0.200120 172 172 170
0.020452 0.086576 0.201068 172 172 170
0.020046 0.086473 0.202017 174 174 172
0.020342 0.085789 0.203454 174 174 172
0.019937 0.085687 0.204400 172 172 172
0.019533 0.085585 0.205346 173 173 173
0.019129 0.085483 0.206291 171 171 171
0.018724 0.085381 0.207237 170 170 170
0.018320 0.085279 0.208183 171 171 171
0.017915 0.085177 0.209128 171 171 171
0.017511 0.085075 0.210074 172 172 172
0.017107 0.084973 0.211020 172 172 172
0.016702 0.084871 0.211965 174 174 174
0.016298 0.084769 0.212911 173 173 175
0.015893 0.084667 0.213857 171 171 173
0.015489 0.084565 0.214802 173 173 175
0.015084 0.084463 0.215748 171 171 173
0.014680 0.084361 0.216694 172 172 174
0.014276 0.084259 0.217639 172 172 174
0.014593 0.083580 0.219026 172 172 174
0.014190 0.083478 0.219969 174 174 176
0.013786 0.083377 0.220912 172 172 174
0.013383 0.083275 0.221855 169 169 171
0.012980 0.083173 0.222797 171 171 173
0.012577 0.083072 0.223740 171 172 174
0.012174 0.082970 0.224683 167 171 172
0.011771 0.082868 0.225625 172 173 175
0.011368 0.082767 0.226568 172 173 175
0.011697 0.082091 0.227925 173 174 176
0.011295 0.081989 0.228865 173 174 176
0.010894 0.081888 0.229805 171 175 176
0.010492 0.081787 0.230745 170 174 175
0.010090 0.081685 0.231684 169 173 176
0.008949 0.082157 0.232224 170 174 177
0.008546 0.082055 0.233167 171 175 178
0.008142 0.081953 0.234110 171 175 178
0.007739 0.081852 0.235052 171 175 178
0.007336 0.081750 0.235995 171 175 178
0.007679 0.081077 0.237323 170 174 177
0.007277 0.080976 0.238263 169 173 176
0.006875 0.080875 0.239202 169 174 177
0.006473 0.080773 0.240142 168 173 176
0.006822 0.080102 0.241455 168 173 176
0.006421 0.080001 0.242392 167 172 175
0.006020 0.079900 0.243329 168 173 176
0.005620 0.079799 0.244265 169 174 177
0.005219 0.079698 0.245202 166 171 174
0.004819 0.079597 0.246139 165 170 173
0.004418 0.079496 0.247076 165 170 173
0.004017 0.079395 0.248012 165 170 173
0.003617 0.079294 0.248949 165 170 173
0.003216 0.079193 0.249886 163 168 171
0.002816 0.079092 0.250823 163 168 171
0.002415 0.078991 0.251759 162 167 170
0.002780 0.078324 0.253034 162 167 170
0.002381 0.078223 0.253968 160 165 168
0.001982 0.078122 0.254901 160 164 167
0.001582 0.078022 0.255835 162 166 169
0.001954 0.077356 0.257095 161 165 168
0.001556 0.077256 0.258026 159 163 166
0.001158 0.077156 0.258957 161 165 168
0.000760 0.077055 0.259887 161 166 169
0.000362 0.076955 0.260818 160 165 168
-0.000037 0.076854 0.261749 158 163 166
-0.000435 0.076754 0.262680 158 163 166
-0.000833 0.076654 0.263611 158 163 166
-0.000450 0.075991 0.264844 159 163 166
-0.000847 0.075891 0.265772 159 163 166
-0.001243 0.075791 0.266699 157 161 164
-0.001640 0.075691 0.267627 157 161 164
-0.002037 0.075591 0.268555 158 162 165
-0.002434 0.075491 0.269483 157 161 164
-0.002831 0.075391 0.270411 156 160 163
-0.003227 0.075291 0.271339 155 159 162
-0.003624 0.075191 0.272267 155 159 162
-0.004021 0.075091 0.273195 155 159 162
-0.004418 0.074990 0.274122 154 157 162
-0.004020 0.074332 0.275320 153 156 161
-0.004415 0.074232 0.276245 151 154 159
-0.004811 0.074132 0.277170 148 151 156
-0.005206 0.074033 0.278094 147 150 155
-0.005602 0.073933 0.279019 147 150 155
-0.005997 0.073833 0.279944 146 149 154
-0.006393 0.073733 0.280869 143 147 150
-0.006788 0.073634 0.281794 143 147 150
-0.006379 0.072978 0.282965 143 144 146
-0.006773 0.072878 0.283887 138 139 141
-0.007167 0.072779 0.284809 137 139 138
-0.007562 0.072680 0.285731 138 137 135
-0.007146 0.072025 0.286886 135 134 130
-0.007539 0.071926 0.287805 136 132 129
-0.007932 0.071827 0.288724 133 128 124
-0.008325 0.071728 0.289643 132 125 119
-0.008718 0.071629 0.290562 129 122 114
-0.008294 0.070977 0.291700 129 122 114
-0.008686 0.070878 0.292616 127 120 112
-0.009077 0.070779 0.293532 126 119 111
-0.009469 0.070680 0.294448 125 118 108
-0.009861 0.070582 0.295364 125 116 107
-0.010253 0.070483 0.296280 126 117 108
-0.010644 0.070384 0.297196 123 115 104
-0.011036 0.070285 0.298113 124 116 105
-0.010601 0.069636 0.299224 122 112 100
-0.010992 0.069537 0.300137 120 110 98
-0.011382 0.069439 0.301050 121 112 97
-0.011773 0.069340 0.301963 122 113 98
-0.012163 0.069242 0.302876 123 114 99
-0.012554 0.069143 0.303789 122 113 98
-0.012944 0.069045 0.304702 122 113 98
-0.013334 0.068946 0.305615 121 112 97
-0.013725 0.068848 0.306528 122 113 98
-0.013277 0.068202 0.307610 122 113 98
-0.013666 0.068104 0.308520 120 108 94
-0.014056 0.068006 0.309430 123 111 97
-0.014445 0.067907 0.310340 123 109 96
-0.014834 0.067809 0.311250 122 108 95
-0.015223 0.067711 0.312160 123 109 96
-0.015612 0.067613 0.313071 123 109 96
-0.016002 0.067515 0.313981 120 106 93
-0.015543 0.066871 0.315036 122 106 93
-0.015931 0.066774 0.315943 121 107 94
-0.016318 0.066676 0.316850 120 106 93
-0.016706 0.066578 0.317757 119 105 92
-0.017094 0.066480 0.318664 118 104 91
-0.017482 0.066382 0.319571 120 106 93
-0.017870 0.066285 0.320478 119 105 92
-0.017401 0.065644 0.321510 120 107 91
-0.017788 0.065546 0.322414 117 104 88
-0.018174 0.065449 0.323318 116 104 88
-0.018561 0.065351 0.324222 116 104 88
-0.018948 0.065254 0.325126 115 103 87
-0.019334 0.065156 0.326031 115 104 86
-0.019721 0.065059 0.326935 113 102 84
-0.020108 0.064961 0.327839 113 100 84
-0.020494 0.064864 0.328743 112 99 83
-0.020012 0.064226 0.329745 114 101 85
-0.020398 0.064129 0.330646 115 103 87
-0.020783 0.064032 0.331547 110 98 84
-0.020296 0.063395 0.332537 107 93 80
-0.020680 0.063299 0.333435 104 90 77
-0.021065 0.063202 0.334333 98 84 71
-0.020573 0.062567 0.335311 93 81 67
-0.020955 0.062470 0.336207 74 64 54
-0.020460 0.061836 0.337176 57 48 41
-0.019961 0.061203 0.338139 36 30 30
-0.019460 0.060570 0.339096 54 52 55
-0.018957 0.059938 0.340047 87 88 93
-0.018451 0.059306 0.340993 82 89 97
-0.017943 0.058676 0.341932 79 89 98
-0.016545 0.057510 0.342921 79 92 100
-0.016030 0.056881 0.343846 79 93 96
-0.015513 0.056252 0.344765 83 94 96
-0.013579 0.054462 0.346628 85 96 100
-0.013053 0.053836 0.347526 84 93 98
-0.012524 0.053210 0.348418 86 95 100
-0.011993 0.052585 0.349304 86 95 100
-0.011459 0.051961 0.350184 84 93 100
-0.010923 0.051337 0.351059 84 93 100
-0.009485 0.050181 0.351953 87 96 103
-0.008942 0.049559 0.352813 85 96 100
-0.008397 0.048938 0.353666 85 96 102
-0.007849 0.048317 0.354513 87 98 104
-0.008203 0.048228 0.355341 87 98 104
-0.007651 0.047608 0.356179 85 96 102
-0.007097 0.046988 0.357012 85 96 102
-0.005633 0.045839 0.357844 86 96 105
-0.005072 0.045222 0.358662 87 96 105
-0.004509 0.044605 0.359474 87 97 106
-0.004855 0.044517 0.360283 86 96 105
-0.004288 0.043901 0.361086 88 98 107
-0.003719 0.043286 0.361883 85 96 102
-0.003147 0.042671 0.362675 85 96 102
-0.002573 0.042057 0.363460 85 96 102
-0.001996 0.041443 0.364239 85 96 102
-0.002336 0.041357 0.365034 83 94 100
-0.001755 0.040745 0.365804 84 95 101
-0.001172 0.040133 0.366569 86 97 103
-0.001509 0.040048 0.367357 83 94 100
-0.001846 0.039963 0.368146 84 95 101
-0.002601 0.039013 0.372041 74 81 87
-0.002937 0.038928 0.372826 70 77 83
-0.003273 0.038844 0.373612 69 76 82
-0.004544 0.039282 0.374454 66 74 77
-0.004881 0.039197 0.375243 67 75 78
-0.005218 0.039112 0.376031 65 73 76
-0.006494 0.039550 0.376885 62 70 73
-0.006832 0.039464 0.377677 63 71 74
-0.008111 0.039901 0.378540 63 71 74
-0.008451 0.039815 0.379334 61 69 72
-0.009734 0.040251 0.380206 60 68 71
-0.011020 0.040685 0.381084 60 68 71
-0.013254 0.041640 0.382051 61 66 70
-0.014546 0.042074 0.382944 61 66 70
-0.015840 0.042506 0.383842 63 68 72
-0.017137 0.042938 0.384747 61 66 70
-0.018437 0.043369 0.385657 61 66 70
-0.019739 0.043800 0.386573 60 65 69
-0.021044 0.044230 0.387496 60 65 69
-0.022351 0.044660 0.388424 59 64 68
-0.023661 0.045088 0.389358 58 66 69
-0.024016 0.044999 0.390188 59 64 68
-0.025329 0.045427 0.391131 58 63 67
-0.026645 0.045854 0.392080 58 63 67
-0.027964 0.046281 0.393035 59 64 67
-0.030247 0.047223 0.394118 59 64 67
-0.031572 0.047648 0.395087 55 63 66
-0.032900 0.048072 0.396063 55 63 66
-0.034230 0.048496 0.397045 52 61 66
-0.035562 0.048919 0.398032 54 61 67
-0.036897 0.049341 0.399026 55 60 66
-0.038235 0.049763 0.400025 48 53 57
-0.039575 0.050184 0.401030 32 33 35
-0.040917 0.050604 0.402041 28 28 28
-0.042263 0.051024 0.403059 39 38 36
-0.042635 0.050930 0.403930 58 55 50
-0.043984 0.051349 0.404956 73 66 60
-0.044358 0.051255 0.405831 89 82 76
-0.044732 0.051161 0.406705 92 89 84
-0.045106 0.051066 0.407580 109 108 106
-0.044499 0.050460 0.408288 107 108 110
-0.044872 0.050366 0.409159 105 109 110
-0.045244 0.050272 0.410031 106 110 113
-0.045617 0.050178 0.410903 108 112 115
-0.045003 0.049574 0.411596 108 112 115
-0.045375 0.049480 0.412464 108 112 113
-0.044757 0.048877 0.413149 107 108 110
-0.045128 0.048784 0.414015 108 109 111
0.024754 0.090009 0.187938 168 169 163
0.025028 0.089316 0.189422 169 170 164
0.025305 0.088624 0.190900 168 169 163
0.025584 0.087933 0.192372 169 170 164
0.025180 0.087831 0.193318 171 172 167
0.024775 0.087729 0.194264 169 170 165
0.025059 0.087039 0.195724 170 171 166
0.024656 0.086937 0.196667 171 172 167
0.024253 0.086836 0.197609 169 170 165
0.023850 0.086734 0.198552 171 172 167
0.023447 0.086632 0.199495 170 171 166
0.023044 0.086531 0.200437 172 173 168
0.022641 0.086429 0.201380 172 173 168
0.022935 0.085742 0.202817 173 174 169
0.022533 0.085640 0.203756 171 172 167
0.022131 0.085539 0.204696 171 171 169
0.021729 0.085438 0.205636 171 171 169
0.021327 0.085336 0.206576 171 171 171
0.020925 0.085235 0.207515 170 170 170
0.020524 0.085134 0.208455 171 171 171
0.020122 0.085032 0.209395 173 173 173
0.019720 0.084931 0.210335 172 172 172
0.019318 0.084829 0.211274 173 173 173
0.018916 0.084728 0.212214 173 173 173
0.018514 0.084627 0.213154 173 173 173
0.018112 0.084525 0.214094 171 171 171
0.017710 0.084424 0.215033 171 171 171
0.017309 0.084323 0.215973 171 171 171
0.016907 0.084221 0.216913 171 171 173
0.016505 0.084120 0.217852 170 170 172
0.016103 0.084019 0.218792 171 171 173
0.016421 0.083337 0.220172 170 170 172
0.016021 0.083236 0.221109 170 170 172
0.015620 0.083135 0.222046 172 172 174
0.015219 0.083034 0.222983 172 172 174
0.014819 0.082933 0.223920 172 172 174
0.014418 0.082832 0.224856 173 174 176
0.014018 0.082731 0.225793 169 173 174
0.013617 0.082630 0.226730 169 173 174
0.013216 0.082529 0.227667 170 174 175
0.013547 0.081851 0.229017 170 174 175
0.012415 0.082327 0.229540 170 174 175
0.012749 0.081650 0.230885 170 174 175
0.012349 0.081549 0.231819 171 175 176
0.011950 0.081448 0.232752 172 176 179
0.010813 0.081923 0.233287 171 175 178
0.011151 0.081247 0.234620 171 175 178
0.010752 0.081146 0.235554 170 174 177
0.010353 0.081045 0.236488 170 174 177
0.009953 0.080945 0.237422 170 174 177
0.009554 0.080844 0.238355 169 173 176
0.009155 0.080743 0.239289 166 170 173
0.009502 0.080069 0.240601 165 170 173
0.009104 0.079969 0.241532 169 174 177
0.008706 0.079868 0.242463 167 172 175
0.008308 0.079768 0.243394 165 170 173
0.008662 0.079096 0.244691 165 170 173
0.008265 0.078996 0.245619 165 170 173
0.007868 0.078895 0.246547 164 169 172
0.007472 0.078795 0.247475 165 170 173
0.007075 0.078695 0.248403 164 169 172
0.006678 0.078595 0.249330 165 170 173
0.006281 0.078495 0.250258 164 169 172
0.005884 0.078395 0.251186 161 166 169
0.005487 0.078295 0.252114 163 168 171
0.005091 0.078195 0.253042 160 165 168
0.004694 0.078095 0.253970 158 163 166
0.004297 0.077995 0.254898 158 163 166
0.004667 0.077327 0.256156 160 164 167
0.004272 0.077227 0.257081 159 163 166
0.003876 0.077127 0.258006 160 164 167
0.003481 0.077027 0.258931 160 164 167
0.003858 0.076361 0.260175 162 166 169
0.003463 0.076261 0.261097 161 165 168
0.003069 0.076162 0.262019 160 164 167
0.002675 0.076062 0.262941 158 162 165
0.002280 0.075963 0.263863 157 162 165
0.001886 0.075864 0.264785 158 163 166
0.001492 0.075764 0.265707 157 162 165
0.001098 0.075665 0.266629 158 162 165
0.000703 0.075565 0.267551 158 162 165
0.000309 0.075466 0.268473 158 162 165
-0.000085 0.075366 0.269395 156 160 163
0.000307 0.074704 0.270603 154 158 161
-0.000086 0.074605 0.271522 156 160 163
-0.000479 0.074505 0.272441 154 158 161
-0.000872 0.074406 0.273360 151 155 158
-0.001265 0.074307 0.274279 152 156 159
-0.001658 0.074208 0.275198 149 153 156
-0.002051 0.074109 0.276117 152 155 160
-0.002444 0.074010 0.277036 149 152 157
-0.002837 0.073911 0.277955 147 150 155
-0.003230 0.073812 0.278874 146 149 154
-0.003623 0.073713 0.279793 143 146 151
-0.004016 0.073613 0.280712 141 144 149
-0.004409 0.073514 0.281631 142 146 149
-0.004000 0.072856 0.282798 140 144 147
-0.004391 0.072757 0.283714 140 141 143
-0.004783 0.072658 0.284630 137 138 140
-0.005175 0.072560 0.285546 136 137 139
-0.005567 0.072461 0.286462 135 134 132
-0.005958 0.072362 0.287378 132 131 127
-0.006350 0.072263 0.288294 134 130 127
-0.005930 0.071608 0.289437 132 127 123
-0.006321 0.071509 0.290350 132 125 119
-0.006711 0.071411 0.291263 130 123 117
-0.006286 0.070756 0.292394 130 123 115
-0.006675 0.070658 0.293304 129 122 114
-0.007065 0.070560 0.294214 127 120 112
-0.007454 0.070462 0.295124 128 121 111
-0.007843 0.070363 0.296035 125 118 108
-0.008232 0.070265 0.296945 122 113 104
-0.008621 0.070167 0.297855 121 113 102
-0.008186 0.069515 0.298962 122 114 103
-0.008574 0.069417 0.299869 122 114 101
-0.008962 0.069320 0.300777 125 115 103
-0.009350 0.069222 0.301684 123 115 102
-0.009738 0.069124 0.302591 122 112 100
-0.010126 0.069026 0.303498 123 114 99
-0.010514 0.068928 0.304405 122 113 98
-0.010902 0.068830 0.305312 123 114 99
-0.011290 0.068733 0.306219 122 113 98
-0.010842 0.068084 0.307297 120 111 96
-0.011229 0.067986 0.308201 119 110 95
-0.011616 0.067889 0.309106 123 111 97
-0.012002 0.067791 0.310010 124 110 97
-0.012389 0.067694 0.310914 123 109 96
-0.012776 0.067596 0.311818 124 110 97
-0.012319 0.066950 0.312875 121 107 94
-0.012704 0.066853 0.313776 121 107 94
-0.013090 0.066755 0.314678 120 106 93
-0.013475 0.066658 0.315579 121 107 94
-0.013861 0.066561 0.316480 120 106 93
-0.014246 0.066464 0.317381 119 105 92
-0.014631 0.066367 0.318282 118 104 91
-0.015017 0.066269 0.319184 119 105 92
-0.015402 0.066172 0.320085 119 105 92
-0.015788 0.066075 0.320986 120 106 93
-0.016173 0.065978 0.321887 121 108 92
-0.016558 0.065881 0.322788 117 105 89
-0.016944 0.065784 0.323690 115 103 87
-0.016469 0.065141 0.324705 117 105 89
-0.016854 0.065045 0.325603 115 103 87
-0.017238 0.064948 0.326502 113 102 84
-0.017622 0.064851 0.327400 113 102 84
-0.018006 0.064754 0.328298 113 102 84
-0.018390 0.064657 0.329196 113 102 84
-0.018774 0.064560 0.330095 115 102 86
-0.019158 0.064463 0.330993 114 102 86
-0.019542 0.064367 0.331891 108 96 82
-0.019055 0.063728 0.332877 114 101 85
-0.019438 0.063631 0.333772 112 99 83
-0.019821 0.063535 0.334668 105 92 75
-0.020204 0.063438 0.335563 103 90 73
-0.019711 0.062801 0.336534 102 89 72
-0.020092 0.062705 0.337426 93 79 66
-0.019595 0.062068 0.338389 88 76 64
-0.019975 0.061972 0.339278 59 49 40
-0.018593 0.060798 0.340295 38 33 29
-0.018971 0.060702 0.341179 55 55 55
-0.017581 0.059530 0.342178 84 89 93
-0.017071 0.058896 0.343111 83 92 99
-0.016559 0.058264 0.344038 80 89 96
-0.015157 0.057094 0.345008 83 94 100
-0.014638 0.056464 0.345920 83 94 100
-0.014117 0.055833 0.346826 84 95 101
-0.013593 0.055204 0.347726 82 93 99
-0.012174 0.054038 0.348657 83 94 100
-0.011644 0.053410 0.349542 84 95 101
-0.011111 0.052783 0.350422 85 94 99
-0.010576 0.052156 0.351295 86 95 100
-0.010039 0.051530 0.352163 84 93 98
-0.009498 0.050905 0.353024 84 95 99
-0.008956 0.050280 0.353880 84 95 99
-0.008410 0.049656 0.354729 84 95 101
-0.007862 0.049032 0.355573 86 97 103
-0.007312 0.048410 0.356411 84 95 101
-0.006759 0.047787 0.357243 84 95 101
-0.006204 0.047166 0.358069 85 96 102
-0.005646 0.046545 0.358889 85 96 102
-0.005085 0.045925 0.359703 83 94 100
-0.004522 0.045305 0.360511 86 97 103
-0.003957 0.044686 0.361313 86 97 103
-0.003388 0.044068 0.362109 87 98 104
-0.002818 0.043450 0.362900 87 98 104
-0.002245 0.042833 0.363684 86 97 103
-0.001669 0.042216 0.364462 87 97 106
-0.002009 0.042131 0.365257 88 98 107
-0.001429 0.041515 0.366027 85 96 102
-0.001768 0.041430 0.366818 84 95 101
-0.001184 0.040815 0.367579 84 95 101
-0.001521 0.040730 0.368367 81 92 98
-0.001270 0.040032 0.369905 81 90 95
-0.001606 0.039947 0.370690 80 89 94
-0.001942 0.039862 0.371476 80 87 93
-0.002278 0.039778 0.372261 71 79 82
-0.002614 0.039693 0.373047 70 78 81
-0.002950 0.039608 0.373833 66 74 77
-0.004219 0.040050 0.374676 64 72 75
-0.004556 0.039965 0.375464 64 72 75
-0.005829 0.040405 0.376316 64 72 75
-0.006168 0.040320 0.377108 62 70 73
-0.007445 0.040760 0.377969 62 70 73
-0.007784 0.040674 0.378763 62 70 73
-0.009065 0.041113 0.379633 60 68 71
-0.010348 0.041551 0.380508 60 68 71
-0.011634 0.041988 0.381390 60 68 71
-0.012922 0.042425 0.382278 61 69 72
-0.014213 0.042861 0.383171 61 66 70
-0.015506 0.043297 0.384070 61 66 70
-0.017750 0.044254 0.385069 61 66 70
-0.019050 0.044688 0.385983 61 66 70
-0.020352 0.045121 0.386903 59 64 68
-0.020704 0.045032 0.387727 60 65 69
-0.022010 0.045465 0.388656 58 66 69
-0.023319 0.045896 0.389591 56 64 67
-0.024630 0.046327 0.390532 55 63 66
-0.025943 0.046758 0.391479 55 63 66
-0.027260 0.047187 0.392432 54 62 65
-0.029538 0.048136 0.393510 57 62 66
-0.030860 0.048564 0.394478 54 62 65
-0.032185 0.048992 0.395451 53 61 64
-0.032549 0.048900 0.396302 54 64 65
-0.034843 0.049845 0.397416 53 61 63
-0.036176 0.050271 0.398407 48 53 57
-0.037511 0.050696 0.399405 27 31 34
-0.038848 0.051120 0.400408 27 28 32
-0.040188 0.051543 0.401417 34 30 29
-0.040560 0.051450 0.402285 47 42 39
-0.041904 0.051873 0.403303 63 58 54
-0.042277 0.051779 0.404175 76 69 63
-0.042649 0.051685 0.405047 88 79 72
-0.043022 0.051591 0.405918 86 79 71
-0.043395 0.051497 0.406790 93 88 84
-0.043767 0.051403 0.407661 108 107 105
-0.043160 0.050794 0.408366 106 107 109
-0.043532 0.050700 0.409234 102 106 107
-0.043903 0.050607 0.410103 104 108 111
-0.044274 0.050513 0.410971 103 107 110
-0.044646 0.050419 0.411840 101 106 109
-0.044031 0.049813 0.412527 103 107 110
-0.044401 0.049720 0.413392 105 109 110
-0.043782 0.049114 0.414070 106 110 111
0.027060 0.088363 0.192218 170 171 165
0.026657 0.088261 0.193161 170 171 165
0.026939 0.087568 0.194623 173 174 169
0.027223 0.086876 0.196080 169 170 165
0.026822 0.086775 0.197016 172 173 168
0.026421 0.086674 0.197953 170 171 166
0.026021 0.086573 0.198890 172 173 168
0.025620 0.086472 0.199827 171 172 167
0.025220 0.086371 0.200763 171 172 167
0.024819 0.086270 0.201700 171 172 167
0.025113 0.085580 0.203133 172 173 168
0.024714 0.085479 0.204067 169 170 165
0.024315 0.085378 0.205001 169 170 165
0.023915 0.085277 0.205934 168 168 166
0.023516 0.085177 0.206868 167 167 165
0.023117 0.085076 0.207802 172 172 172
0.022717 0.084975 0.208736 171 171 171
0.022318 0.084875 0.209670 174 174 174
0.021919 0.084774 0.210604 172 172 170
0.021519 0.084673 0.211537 169 169 169
0.021120 0.084572 0.212471 171 171 171
0.020721 0.084472 0.213405 171 171 171
0.020321 0.084371 0.214339 172 172 172
0.019922 0.084270 0.215273 172 172 172
0.019523 0.084170 0.216206 171 171 171
0.019123 0.084069 0.217140 172 172 172
0.018724 0.083968 0.218074 169 169 171
0.018325 0.083868 0.219008 169 169 171
0.017925 0.083767 0.219942 171 171 173
0.018245 0.083083 0.221315 173 173 175
0.017847 0.082983 0.222246 173 173 175
0.017449 0.082882 0.223177 172 172 174
0.017051 0.082782 0.224108 171 171 173
0.016653 0.082682 0.225038 173 173 175
0.016255 0.082581 0.225969 172 173 175
0.015857 0.082481 0.226900 170 171 173
0.015458 0.082381 0.227831 169 173 174
0.015790 0.081700 0.229178 169 173 174
0.015393 0.081600 0.230106 169 173 174
0.014996 0.081500 0.231034 171 175 176
0.014599 0.081400 0.231961 171 175 176
0.014202 0.081300 0.232889 171 175 176
0.013806 0.081199 0.233817 170 174 177
0.013409 0.081099 0.234745 172 176 179
0.013012 0.080999 0.235673 171 175 178
0.012615 0.080899 0.236601 170 174 177
0.012218 0.080799 0.237529 167 171 174
0.011822 0.080699 0.238457 169 173 176
0.011425 0.080599 0.239384 168 172 175
0.011772 0.079922 0.240693 168 172 175
0.011377 0.079823 0.241618 169 173 176
0.010981 0.079723 0.242543 166 170 173
0.011334 0.079048 0.243839 166 170 173
0.010940 0.078948 0.244761 168 172 175
0.010545 0.078849 0.245683 166 170 173
0.010151 0.078749 0.246605 165 169 172
0.009757 0.078650 0.247527 164 168 171
0.009363 0.078551 0.248449 165 169 172
0.008968 0.078451 0.249371 166 170 173
0.008574 0.078352 0.250293 164 168 171
0.008180 0.078252 0.251215 158 162 165
0.007785 0.078153 0.252137 162 166 169
0.007391 0.078053 0.253059 162 166 169
0.006997 0.077954 0.253981 160 164 167
0.007366 0.077283 0.255238 161 165 168
0.006973 0.077184 0.256157 160 164 167
0.006580 0.077085 0.257076 163 164 168
0.006187 0.076986 0.257995 160 164 167
0.005794 0.076886 0.258914 159 163 166
0.006171 0.076217 0.260154 161 165 168
0.005779 0.076118 0.261070 160 164 167
0.005387 0.076020 0.261986 159 163 166
0.004996 0.075921 0.262903 158 162 165
0.004604 0.075822 0.263819 158 162 165
0.004212 0.075723 0.264735 155 160 163
0.003820 0.075624 0.265651 157 162 165
0.003429 0.075526 0.266567 158 162 165
0.003037 0.075427 0.267483 158 162 165
0.002645 0.075328 0.268399 157 161 164
0.002253 0.075229 0.269315 154 158 161
0.001862 0.075131 0.270231 154 158 161
0.001470 0.075032 0.271147 155 159 162
0.001864 0.074367 0.272345 150 154 157
0.001474 0.074269 0.273258 152 156 159
0.001084 0.074170 0.274171 151 155 158
0.000693 0.074072 0.275084 151 155 158
0.000303 0.073973 0.275998 148 152 155
-0.000088 0.073875 0.276911 148 152 155
-0.000478 0.073776 0.277824 150 154 157
-0.000074 0.073114 0.278999 146 149 154
-0.000463 0.073016 0.279909 140 144 147
-0.000852 0.072918 0.280819 143 147 150
-0.001241 0.072820 0.281729 139 143 146
-0.001630 0.072721 0.282639 139 143 146
-0.002020 0.072623 0.283549 141 145 148
-0.002409 0.072525 0.284459 140 141 143
-0.002798 0.072427 0.285369 138 139 141
-0.003187 0.072329 0.286279 135 135 135
-0.003576 0.072231 0.287189 132 131 129
-0.003966 0.072133 0.288099 133 132 128
-0.003546 0.071474 0.289239 133 129 126
-0.003934 0.071376 0.290146 131 126 122
-0.004322 0.071279 0.291053 132 125 119
-0.004710 0.071181 0.291960 131 124 118
-0.004283 0.070524 0.293085 130 123 117
-0.004670 0.070426 0.293989 129 125 116
-0.005057 0.070329 0.294893 129 122 114
-0.004626 0.069673 0.296006 126 119 109
-0.005011 0.069576 0.296907 124 117 107
-0.005396 0.069479 0.297808 122 113 104
-0.005782 0.069382 0.298709 122 114 103
-0.006167 0.069285 0.299610 122 114 103
-0.006552 0.069188 0.300512 123 115 104
-0.006938 0.069090 0.301413 122 114 103
-0.007323 0.068993 0.302314 121 113 100
-0.007709 0.068896 0.303215 122 114 101
-0.008094 0.068799 0.304116 121 114 98
-0.008479 0.068702 0.305018 121 112 97
-0.008865 0.068604 0.305919 120 111 96
-0.009250 0.068507 0.306820 120 111 96
-0.008801 0.067856 0.307891 121 112 97
-0.009185 0.067759 0.308789 119 110 95
-0.009570 0.067662 0.309688 122 110 96
-0.009954 0.067566 0.310586 122 108 95
-0.009498 0.066916 0.311642 124 110 97
-0.009881 0.066820 0.312537 121 107 94
-0.010264 0.066723 0.313433 120 106 93
-0.010647 0.066627 0.314328 120 106 93
-0.011874 0.067081 0.315077 123 109 96
-0.012258 0.066984 0.315975 120 106 93
-0.012643 0.066887 0.316873 120 106 93
-0.012178 0.066240 0.317909 118 104 91
-0.012561 0.066144 0.318804 119 105 92
-0.012944 0.066047 0.319700 121 107 94
-0.013327 0.065951 0.320595 121 107 94
-0.013710 0.065854 0.321490 118 106 92
-0.014093 0.065758 0.322385 120 108 92
-0.014475 0.065661 0.323281 117 105 89
-0.014001 0.065016 0.324293 115 103 87
-0.014383 0.064920 0.325185 116 104 88
-0.014764 0.064824 0.326077 113 101 85
-0.015146 0.064728 0.326969 112 101 83
-0.015527 0.064632 0.327862 113 102 84
-0.015909 0.064535 0.328754 113 102 84
-0.016291 0.064439 0.329646 112 101 83
-0.016672 0.064343 0.330539 113 100 83
-0.017054 0.064247 0.331431 114 101 84
-0.017435 0.064150 0.332323 111 98 82
-0.017817 0.064054 0.333216 112 99 83
-0.018199 0.063958 0.334108 112 99 82
-0.018580 0.063862 0.335000 112 99 80
-0.018962 0.063765 0.335892 111 100 80
-0.019343 0.063669 0.336785 109 98 80
-0.018849 0.063030 0.337749 106 94 78
-0.019229 0.062934 0.338639 99 87 71
-0.018731 0.062295 0.339594 91 79 63
-0.018230 0.061657 0.340544 82 72 60
-0.017726 0.061020 0.341487 58 49 40
-0.018103 0.060925 0.342368 36 31 25
-0.016712 0.059748 0.343357 43 41 42
-0.016200 0.059112 0.344283 80 81 85
-0.015687 0.058478 0.345203 87 92 98
-0.014283 0.057303 0.346162 85 94 101
-0.013763 0.056670 0.347067 81 90 97
-0.013240 0.056038 0.347967 83 94 100
-0.012715 0.055406 0.348860 84 95 101
-0.012188 0.054775 0.349747 86 97 103
-0.010764 0.053605 0.350659 82 93 97
-0.011125 0.053514 0.351504 83 94 96
-0.010590 0.052885 0.352374 84 94 96
-0.010052 0.052256 0.353237 85 96 100
-0.008613 0.051091 0.354114 83 94 98
-0.008069 0.050464 0.354962 82 93 97
-0.007522 0.049837 0.355805 85 96 102
-0.006973 0.049212 0.356642 84 95 101
-0.006421 0.048587 0.357473 84 95 101
-0.005867 0.047962 0.358298 83 94 100
-0.005310 0.047338 0.359118 85 96 102
-0.004751 0.046715 0.359931 84 95 101
-0.004189 0.046093 0.360738 84 95 101
-0.003625 0.045471 0.361539 86 97 103
-0.003058 0.044849 0.362335 87 98 104
-0.002488 0.044229 0.363124 86 97 103
-0.001916 0.043609 0.363908 85 96 102
-0.002257 0.043523 0.364705 85 95 104
-0.001682 0.042904 0.365480 85 95 104
-0.002021 0.042818 0.366275 86 97 103
-0.001442 0.042200 0.367040 84 95 101
-0.000860 0.041583 0.367800 84 95 101
-0.001197 0.041498 0.368589 81 92 98
-0.001534 0.041413 0.369377 79 90 94
-0.000947 0.040796 0.370125 80 89 94
-0.001283 0.040712 0.370911 78 87 92
-0.001619 0.040627 0.371697 78 85 91
-0.001955 0.040542 0.372482 70 80 82
-0.002291 0.040457 0.373268 66 76 78
-0.003557 0.040902 0.374109 66 76 78
-0.003895 0.040817 0.374897 65 75 77
-0.004232 0.040732 0.375686 63 72 77
-0.005504 0.041176 0.376539 63 72 77
-0.005842 0.041090 0.377330 61 70 75
-0.007118 0.041533 0.378192 59 68 73
-0.008396 0.041975 0.379059 62 70 73
-0.009676 0.042416 0.379933 60 68 71
-0.010960 0.042857 0.380812 60 68 71
-0.012245 0.043297 0.381698 59 67 70
-0.013534 0.043736 0.382589 59 67 70
-0.014824 0.044175 0.383486 60 68 71
-0.016118 0.044613 0.384390 59 67 70
-0.017413 0.045050 0.385299 57 65 68
-0.018712 0.045487 0.386214 59 64 68
-0.020013 0.045923 0.387135 59 64 68
-0.021316 0.046359 0.388062 57 65 68
-0.022622 0.046794 0.388995 58 66 69
-0.023931 0.047228 0.389933 54 62 65
-0.025242 0.047661 0.390878 56 64 66
-0.026555 0.048094 0.391829 55 63 65
-0.027872 0.048527 0.392785 56 64 66
-0.029190 0.048958 0.393748 53 61 64
-0.030511 0.049389 0.394716 54 64 66
-0.031835 0.049820 0.395690 52 60 62
-0.033162 0.050250 0.396671 44 52 54
-0.034490 0.050679 0.397657 28 34 34
-0.035822 0.051107 0.398649 26 28 25
-0.037156 0.051535 0.399647 33 32 30
-0.038492 0.051962 0.400651 41 36 33
-0.038862 0.051869 0.401517 59 51 48
-0.040202 0.052295 0.402530 67 60 54
-0.040574 0.052201 0.403398 76 69 63
-0.040945 0.052108 0.404267 87 78 71
-0.041317 0.052014 0.405135 87 78 69
-0.041688 0.051920 0.406004 86 79 71
-0.042060 0.051827 0.406872 92 89 84
-0.042431 0.051733 0.407741 111 111 109
-0.042803 0.051639 0.408610 106 110 111
-0.042564 0.050935 0.410173 100 104 107
-0.042934 0.050842 0.411039 99 104 107
-0.043304 0.050749 0.411904 99 104 107
-0.042689 0.050140 0.412587 103 108 111
-0.042439 0.049438 0.414124 101 107 107
0.029376 0.086700 0.196444 173 174 168
0.028978 0.086599 0.197375 170 171 166
0.028580 0.086499 0.198306 170 171 166
0.028182 0.086398 0.199236 170 171 166
0.027784 0.086298 0.200167 171 172 167
0.027386 0.086198 0.201098 169 170 165
0.026988 0.086097 0.202029 169 170 165
0.027282 0.085405 0.203458 168 169 164
0.026885 0.085305 0.204386 167 167 165
0.026488 0.085205 0.205314 169 169 167
0.026092 0.085104 0.206242 169 169 167
0.025695 0.085004 0.207169 169 169 167
0.025298 0.084904 0.208097 171 171 171
0.024901 0.084804 0.209025 173 173 173
0.024504 0.084704 0.209953 172 172 172
0.024108 0.084604 0.210881 172 172 172
0.023711 0.084504 0.211809 171 171 171
0.023314 0.084404 0.212737 169 169 169
0.023624 0.083715 0.214130 173 173 173
0.023228 0.083616 0.215055 172 172 172
0.022124 0.084104 0.215520 171 171 171
0.021727 0.084004 0.216448 169 169 169
0.021330 0.083904 0.217376 170 170 170
0.020933 0.083804 0.218304 171 171 171
0.020536 0.083704 0.219232 171 171 173
0.020140 0.083603 0.220160 171 171 173
0.020459 0.082917 0.221530 172 172 174
0.020064 0.082818 0.222454 172 172 174
0.019668 0.082718 0.223379 173 173 175
0.019273 0.082618 0.224304 172 172 174
0.018877 0.082518 0.225229 172 172 174
0.018482 0.082419 0.226154 171 171 173
0.018086 0.082319 0.227079 170 171 173
0.017691 0.082219 0.228004 171 172 174
0.017295 0.082119 0.228929 172 173 175
0.017627 0.081436 0.230269 169 173 174
0.017233 0.081337 0.231191 170 174 175
0.016839 0.081238 0.232113 171 175 176
0.016445 0.081138 0.233035 170 174 175
0.016050 0.081039 0.233957 170 174 175
0.016390 0.080358 0.235279 171 175 178
0.015997 0.080259 0.236198 171 175 178
0.015604 0.080159 0.237117 170 174 177
0.015211 0.080060 0.238036 169 173 176
0.014818 0.079961 0.238955 169 173 176
0.014425 0.079862 0.239874 169 173 176
0.014032 0.079763 0.240793 168 172 175
0.013639 0.079664 0.241712 166 170 173
0.013246 0.079565 0.242631 164 168 171
0.013599 0.078887 0.243923 167 171 174
0.013207 0.078788 0.244840 166 170 173
0.012816 0.078689 0.245756 164 168 171
0.012424 0.078591 0.246672 165 169 172
0.012032 0.078492 0.247588 166 170 173
0.011640 0.078393 0.248504 165 169 172
0.011249 0.078294 0.249420 163 167 170
0.010857 0.078195 0.250336 162 166 169
0.010465 0.078097 0.251252 161 165 168
0.010073 0.077998 0.252168 161 165 168
0.009682 0.077899 0.253084 159 163 166
0.009290 0.077800 0.254000 162 166 169
0.008898 0.077701 0.254916 162 166 169
0.009269 0.077028 0.256167 162 166 169
0.008878 0.076930 0.257080 161 165 168
0.008488 0.076831 0.257993 162 166 169
0.008097 0.076733 0.258906 160 164 167
0.007707 0.076634 0.259819 161 165 168
0.008085 0.075963 0.261052 161 165 168
0.007696 0.075865 0.261963 160 164 167
0.007306 0.075766 0.262873 158 162 165
0.006917 0.075668 0.263783 158 162 165
0.006528 0.075570 0.264693 158 162 165
0.006139 0.075472 0.265603 159 163 166
0.005750 0.075374 0.266513 159 163 166
0.005361 0.075276 0.267423 157 161 164
0.004971 0.075178 0.268333 156 160 163
0.004582 0.075079 0.269243 156 160 163
0.004193 0.074981 0.270153 154 158 161
0.003804 0.074883 0.271063 155 159 162
0.003415 0.074785 0.271974 155 159 162
0.003810 0.074118 0.273165 154 158 161
0.003422 0.074020 0.274073 152 156 159
0.003034 0.073922 0.274980 150 154 157
0.002647 0.073824 0.275887 150 154 157
0.002259 0.073727 0.276794 149 153 156
0.001871 0.073629 0.277701 149 153 156
0.001483 0.073531 0.278608 146 150 153
0.001889 0.072867 0.279776 143 147 150
0.001502 0.072769 0.280680 142 146 149
0.001115 0.072672 0.281585 142 146 149
0.000729 0.072574 0.282489 140 144 147
0.000342 0.072477 0.283393 140 144 147
-0.000045 0.072379 0.284297 142 143 147
-0.000431 0.072281 0.285201 139 140 142
-0.000818 0.072184 0.286105 137 137 137
-0.001205 0.072086 0.287010 133 133 133
-0.001591 0.071989 0.287914 134 133 131
-0.001171 0.071328 0.289049 132 131 127
-0.001557 0.071231 0.289950 135 131 128
-0.001942 0.071134 0.290852 134 129 125
-0.002328 0.071036 0.291753 132 127 121
-0.001901 0.070377 0.292874 132 125 119
-0.002285 0.070280 0.293772 128 123 117
-0.002670 0.070183 0.294670 126 121 115
-0.003054 0.070087 0.295568 126 119 111
