ply
format ascii 1.0
element vertex 1253
property float x
property float y
property float z
property uchar red
property uchar green
property uchar blue
end_header
-0.061223 -0.013292 0.262269 44 48 60
-0.061551 -0.013075 0.261344 22 35 52
-0.061878 -0.012858 0.260420 14 35 54
-0.061344 -0.012461 0.258923 5 30 50
-0.061673 -0.012243 0.257995 1 28 49
-0.062001 -0.012025 0.257068 4 31 52
0.675295 0.145127 -0.243632 5 33 54
0.672331 0.145590 -0.245998 3 31 52
0.669370 0.146051 -0.248353 3 31 52
0.665560 0.146323 -0.250104 2 33 54
0.662609 0.146777 -0.252431 5 37 58
0.658811 0.147042 -0.254150 11 46 68
0.654168 0.147117 -0.255251 8 42 67
0.651233 0.147560 -0.257532 8 40 65
0.648303 0.148000 -0.259802 0 26 51
0.646225 0.148627 -0.262667 27 63 89
0.643303 0.149062 -0.264915 21 58 84
0.640384 0.149495 -0.267151 7 43 67
0.638315 0.150115 -0.269993 6 38 61
0.637092 0.150927 -0.273449 5 33 57
0.636711 0.151930 -0.277528 0 26 49
0.634645 0.152549 -0.280360 0 17 38
0.633422 0.153360 -0.283816 0 16 38
0.633038 0.154365 -0.287905 0 16 38
0.630975 0.154982 -0.290728 0 17 38
0.629752 0.155793 -0.294184 2 24 45
0.627692 0.156407 -0.296998 1 26 46
0.626470 0.157218 -0.300451 7 34 55
0.624414 0.157830 -0.303256 4 32 56
0.624026 0.158838 -0.307356 7 39 64
0.622803 0.159649 -0.310809 2 36 61
0.621581 0.160459 -0.314262 0 34 59
0.621189 0.161471 -0.318375 0 32 57
0.620794 0.162483 -0.322493 0 31 54
0.619570 0.163295 -0.325952 0 31 52
0.616692 0.163701 -0.328073 4 32 53
0.615470 0.164511 -0.331526 1 28 47
0.613423 0.165117 -0.334304 1 26 46
0.609732 0.165311 -0.335719 0 23 39
0.607692 0.165912 -0.338478 0 18 29
0.605654 0.166512 -0.341232 6 26 37
0.601978 0.166696 -0.342605 3 26 40
0.599946 0.167292 -0.345340 2 28 43
0.597917 0.167887 -0.348069 1 27 42
0.595889 0.168480 -0.350792 1 23 37
0.594680 0.169282 -0.354209 0 17 27
0.592656 0.169872 -0.356923 0 12 18
0.591447 0.170674 -0.360336 4 12 15
0.588614 0.171050 -0.362333 1 10 15
0.585785 0.171423 -0.364317 0 19 30
0.582960 0.171794 -0.366290 45 76 94
0.579330 0.171948 -0.367532 49 87 110
0.576514 0.172312 -0.369477 23 65 89
0.574511 0.172889 -0.372134 25 75 100
0.573315 0.173682 -0.375511 18 68 95
0.570509 0.174040 -0.377428 24 66 91
0.570924 0.175267 -0.382265 0 30 54
0.569729 0.176060 -0.385642 0 14 36
0.568534 0.176852 -0.389019 0 17 33
0.568139 0.177865 -0.393137 0 23 35
0.566942 0.178658 -0.396518 58 88 99
0.564947 0.179230 -0.399150 65 103 114
0.562157 0.179578 -0.401025 60 98 111
0.559370 0.179923 -0.402888 62 99 115
0.555793 0.180041 -0.403982 66 103 121
0.552222 0.180156 -0.405058 62 99 117
0.549450 0.180491 -0.406879 48 85 104
0.546683 0.180823 -0.408687 43 78 98
0.543130 0.180926 -0.409715 45 77 98
0.541162 0.181479 -0.412268 54 87 106
0.540775 0.182487 -0.416366 49 84 103
0.541174 0.183725 -0.421247 57 92 111
0.539995 0.184507 -0.424579 62 99 118
0.538815 0.185289 -0.427910 64 101 119
0.535282 0.185378 -0.428880 58 93 112
0.533322 0.185926 -0.431412 62 95 112
0.530582 0.186241 -0.433145 49 81 96
0.272415 -0.045195 0.455176 90 115 137
0.271819 -0.044800 0.453493 103 134 154
0.270150 -0.044447 0.451779 98 133 153
0.269556 -0.044053 0.450099 115 150 172
0.267889 -0.043702 0.448394 66 104 125
0.267296 -0.043308 0.446718 72 113 135
0.266702 -0.042915 0.445041 135 181 204
0.925292 -0.009146 0.432562 7 46 85
0.247152 -0.036738 0.416826 96 136 161
0.246569 -0.036351 0.415177 105 137 158
0.245985 -0.035964 0.413528 87 109 123
0.790433 -0.004921 0.390766 69 81 93
0.788245 -0.004224 0.387584 23 36 44
0.787104 -0.003468 0.384362 24 35 37
0.233339 -0.032103 0.395813 39 84 117
0.232762 -0.031720 0.394182 145 201 228
0.233220 -0.031270 0.392474 181 230 237
0.232641 -0.030886 0.390841 214 255 255
0.232063 -0.030503 0.389207 102 142 168
0.232517 -0.030050 0.387487 11 50 79
0.566123 0.002070 0.321388 87 105 117
0.564167 0.002613 0.318864 89 107 119
0.561198 0.003073 0.316481 89 107 119
0.557220 0.003449 0.314247 89 107 119
0.552236 0.003738 0.312173 88 106 120
0.548271 0.004105 0.309978 87 105 119
0.544314 0.004467 0.307802 88 106 120
0.540362 0.004826 0.305645 87 106 120
0.537426 0.005265 0.303352 87 106 120
0.534493 0.005701 0.301072 87 106 120
0.530559 0.006048 0.298963 85 107 120
-0.063441 -0.038882 0.367840 106 108 129
-0.063729 -0.038691 0.367027 115 115 139
-0.064016 -0.038500 0.366215 116 116 140
-0.065276 -0.038419 0.365658 123 119 142
-0.065562 -0.038229 0.364849 125 117 140
-0.065849 -0.038039 0.364040 127 118 139
-0.066135 -0.037849 0.363230 130 117 137
-0.066422 -0.037659 0.362421 132 110 131
-0.065742 -0.037356 0.361340 131 103 125
-0.066029 -0.037166 0.360528 129 100 120
-0.066317 -0.036975 0.359716 123 96 111
-0.066604 -0.036784 0.358903 115 92 102
-0.065930 -0.036478 0.357808 108 85 93
-0.047257 -0.032272 0.344522 68 76 87
-0.048522 -0.032188 0.343950 48 55 65
-0.048833 -0.031981 0.343071 53 56 65
-0.050095 -0.031899 0.342508 64 62 73
-0.051355 -0.031817 0.341952 82 74 87
-0.051664 -0.031613 0.341079 97 85 99
-0.052920 -0.031533 0.340531 102 90 102
-0.054174 -0.031456 0.339990 112 100 110
-0.054481 -0.031252 0.339123 118 108 117
-0.054788 -0.031049 0.338256 125 114 128
-0.055095 -0.030845 0.337389 130 119 133
-0.055402 -0.030642 0.336522 134 123 137
-0.055709 -0.030438 0.335655 132 124 137
-0.055076 -0.030104 0.334441 131 125 137
-0.055384 -0.029900 0.333571 129 123 135
-0.055692 -0.029696 0.332701 127 124 135
-0.055063 -0.029359 0.331475 128 124 138
-0.055372 -0.029154 0.330602 113 111 125
-0.055681 -0.028949 0.329729 104 103 117
-0.038257 -0.026177 0.321922 98 97 113
-0.038587 -0.025959 0.320991 87 90 105
-0.037985 -0.025604 0.319689 79 86 102
-0.038315 -0.025385 0.318756 88 101 117
-0.038646 -0.025166 0.317822 94 111 129
-0.046006 -0.019532 0.294027 85 83 94
-0.047239 -0.019468 0.293546 87 77 86
-0.047570 -0.019249 0.292612 90 77 87
-0.047900 -0.019030 0.291679 101 81 93
-0.049129 -0.018969 0.291210 102 80 93
-0.049458 -0.018751 0.290279 105 81 94
-0.049787 -0.018533 0.289349 107 83 96
-0.050117 -0.018314 0.288418 109 85 98
-0.050446 -0.018096 0.287487 110 84 97
-0.051668 -0.018039 0.287037 112 89 99
-0.051997 -0.017822 0.286109 111 88 98
-0.052325 -0.017604 0.285182 110 87 97
-0.052653 -0.017386 0.284254 109 86 94
-0.052982 -0.017169 0.283326 109 86 94
-0.053310 -0.016951 0.282399 106 83 91
-0.053638 -0.016733 0.281471 108 83 89
-0.053967 -0.016515 0.280544 107 82 88
-0.053411 -0.016130 0.279112 108 83 87
-0.053741 -0.015912 0.278181 107 85 87
-0.054070 -0.015693 0.277250 108 88 90
-0.054399 -0.015475 0.276320 111 92 94
-0.054729 -0.015256 0.275389 112 96 97
-0.055058 -0.015038 0.274458 110 94 95
-0.055388 -0.014819 0.273528 110 94 94
-0.055717 -0.014601 0.272597 107 92 89
-0.056047 -0.014383 0.271666 107 92 89
-0.056376 -0.014164 0.270736 107 92 87
-0.056705 -0.013946 0.269805 110 92 88
-0.057035 -0.013727 0.268874 112 93 89
-0.057364 -0.013509 0.267944 112 93 89
-0.057694 -0.013290 0.267013 110 91 87
-0.058892 -0.013250 0.266629 112 94 92
-0.059221 -0.013032 0.265702 109 94 91
-0.059549 -0.012814 0.264774 85 78 85
-0.059877 -0.012597 0.263846 50 52 65
-0.060206 -0.012379 0.262919 27 40 59
-0.061398 -0.012343 0.262553 18 42 66
-0.061725 -0.012126 0.261629 6 37 65
-0.062052 -0.011909 0.260704 4 38 65
-0.061519 -0.011508 0.259208 3 33 57
-0.061847 -0.011290 0.258281 3 29 52
0.681030 0.149036 -0.242473 0 33 52
0.679772 0.149870 -0.246026 0 34 54
0.675947 0.150145 -0.247829 1 35 60
0.672982 0.150602 -0.250200 5 36 64
0.668314 0.150682 -0.251381 0 34 62
0.663655 0.150755 -0.252537 4 40 66
0.659004 0.150823 -0.253669 7 47 72
0.654362 0.150886 -0.254777 6 48 70
0.650578 0.151133 -0.256462 4 39 67
0.647649 0.151567 -0.258733 0 29 57
0.644724 0.151998 -0.260992 10 46 72
0.642650 0.152619 -0.263850 0 29 54
0.639733 0.153046 -0.266088 0 23 45
0.637665 0.153664 -0.268930 0 19 42
0.636441 0.154475 -0.272386 0 17 41
0.635218 0.155286 -0.275842 0 13 36
0.633995 0.156097 -0.279297 0 16 35
0.632771 0.156908 -0.282753 4 25 44
0.631548 0.157719 -0.286209 10 32 53
0.629487 0.158332 -0.289030 0 22 43
0.628265 0.159142 -0.292483 5 30 50
0.626207 0.159752 -0.295295 2 30 51
0.624151 0.160362 -0.298101 0 30 51
0.622931 0.161171 -0.301548 1 33 58
0.621711 0.161979 -0.304994 2 34 57
0.620491 0.162788 -0.308441 4 34 60
0.619271 0.163597 -0.311888 2 32 58
0.619709 0.164814 -0.316653 0 30 54
0.619315 0.165830 -0.320767 0 30 54
0.618919 0.166846 -0.324888 2 28 51
0.617694 0.167658 -0.328347 0 25 45
0.615645 0.168263 -0.331135 0 21 39
0.614422 0.169074 -0.334591 0 20 36
0.612376 0.169677 -0.337369 2 21 35
0.609510 0.170069 -0.339462 3 20 28
0.606649 0.170458 -0.341542 2 21 28
0.604611 0.171055 -0.344296 5 27 40
0.601757 0.171440 -0.346355 0 27 44
0.598908 0.171821 -0.348402 0 26 43
0.596879 0.172413 -0.351132 2 25 39
0.594852 0.173002 -0.353857 0 19 28
0.592827 0.173591 -0.356575 1 14 20
0.590805 0.174178 -0.359286 2 7 10
0.587973 0.174548 -0.361285 0 8 11
0.585144 0.174916 -0.363271 1 18 28
0.583131 0.175497 -0.365959 39 68 86
0.581119 0.176077 -0.368640 10 46 68
0.577494 0.176219 -0.369877 10 48 71
0.575488 0.176794 -0.372540 7 53 77
0.574291 0.177588 -0.375923 8 55 81
0.573093 0.178382 -0.379306 0 35 57
0.571896 0.179176 -0.382689 10 41 59
0.571501 0.180192 -0.386807 0 18 32
0.570302 0.180987 -0.390193 0 10 20
0.569103 0.181782 -0.393580 0 10 20
0.567905 0.182576 -0.396966 0 16 26
0.565110 0.182922 -0.398858 43 73 83
0.561522 0.183039 -0.399988 52 86 98
0.558737 0.183378 -0.401853 68 104 118
0.555956 0.183714 -0.403706 64 101 117
0.552386 0.183819 -0.404788 68 105 123
0.549614 0.184149 -0.406613 57 95 114
0.546848 0.184476 -0.408427 51 89 108
0.544875 0.185029 -0.410996 50 88 107
0.542906 0.185581 -0.413560 41 76 95
0.541726 0.186363 -0.416891 40 75 95
0.540547 0.187145 -0.420223 50 88 109
0.537795 0.187462 -0.421994 55 96 116
0.536618 0.188242 -0.425319 66 109 128
0.534657 0.188789 -0.427858 71 112 132
0.531914 0.189099 -0.429602 71 109 128
0.529958 0.189642 -0.432126 71 108 126
0.559935 -0.033047 0.471085 29 27 38
0.560130 -0.032420 0.468638 27 30 39
0.560324 -0.031792 0.466185 28 38 47
0.559441 -0.031206 0.463690 76 92 107
0.556411 -0.030711 0.461129 95 115 139
0.555530 -0.030126 0.458640 103 129 152
0.554649 -0.029542 0.456152 108 138 162
0.553768 -0.028958 0.453663 109 145 167
0.924621 -0.005483 0.433660 15 24 39
0.246842 -0.035045 0.417333 102 135 154
0.246258 -0.034658 0.415684 98 124 141
0.812989 -0.001079 0.394214 85 99 110
0.802397 -0.000865 0.391282 37 35 40
0.803335 0.000026 0.387935 39 30 35
0.800088 0.000666 0.384759 33 27 27
0.797889 0.001367 0.381545 32 24 22
0.232455 -0.030046 0.394684 91 143 180
0.231877 -0.029663 0.393053 184 237 255
0.231300 -0.029280 0.391422 217 255 255
0.231755 -0.028825 0.389709 145 182 200
0.231177 -0.028442 0.388075 36 78 102
0.571722 0.005292 0.321440 88 106 118
0.567729 0.005670 0.319158 87 105 119
0.565772 0.006211 0.316627 88 106 118
0.560777 0.006496 0.314512 89 107 119
0.555790 0.006776 0.312421 88 104 119
0.551823 0.007136 0.310212 89 105 120
0.546853 0.007405 0.308167 86 102 117
0.543909 0.007844 0.305848 89 105 121
0.538954 0.008103 0.303846 87 103 119
0.537027 0.008623 0.301403 87 105 119
-0.063594 -0.038048 0.368090 114 112 136
-0.063881 -0.037857 0.367277 118 115 142
-0.065142 -0.037778 0.366717 124 120 145
-0.065428 -0.037588 0.365907 124 119 142
-0.065715 -0.037398 0.365098 127 117 141
-0.066001 -0.037208 0.364289 130 119 136
-0.066288 -0.037018 0.363479 130 115 134
-0.065607 -0.036713 0.362403 131 110 129
-0.065895 -0.036522 0.361590 129 101 123
-0.066182 -0.036332 0.360778 126 97 115
-0.066470 -0.036141 0.359965 120 93 108
-0.065795 -0.035832 0.358874 111 88 98
-0.047423 -0.031367 0.344793 77 80 87
-0.048688 -0.031285 0.344220 89 92 101
-0.049950 -0.031205 0.343654 76 76 86
-0.051210 -0.031126 0.343093 74 73 81
-0.051519 -0.030921 0.342220 84 78 88
-0.052776 -0.030844 0.341669 94 86 97
-0.053084 -0.030640 0.340799 108 98 109
-0.054337 -0.030566 0.340256 116 106 117
-0.054644 -0.030362 0.339389 121 110 124
-0.054951 -0.030159 0.338522 127 116 130
-0.055258 -0.029955 0.337655 133 122 136
-0.055565 -0.029752 0.336788 134 123 137
-0.055872 -0.029548 0.335921 136 125 139
-0.055240 -0.029211 0.334709 132 124 137
-0.055548 -0.029007 0.333839 128 122 134
-0.055856 -0.028802 0.332969 128 125 136
-0.055228 -0.028462 0.331744 131 128 139
-0.056471 -0.028394 0.331229 111 109 123
-0.038103 -0.025440 0.323138 103 102 116
-0.038432 -0.025222 0.322208 96 98 113
-0.038762 -0.025003 0.321277 85 91 107
-0.039091 -0.024785 0.320346 77 86 103
-0.039421 -0.024567 0.319416 82 98 114
-0.038822 -0.024207 0.318109 92 110 130
-0.039152 -0.023988 0.317175 87 109 130
-0.046754 -0.018948 0.295701 91 85 97
-0.047084 -0.018729 0.294767 89 79 90
-0.047415 -0.018510 0.293833 97 81 92
-0.047745 -0.018291 0.292900 105 85 96
-0.048974 -0.018232 0.292427 108 86 98
-0.049304 -0.018014 0.291496 113 91 103
-0.049633 -0.017796 0.290566 115 91 104
-0.049963 -0.017577 0.289635 114 90 103
-0.050292 -0.017359 0.288704 115 91 104
-0.051514 -0.017305 0.288250 118 92 105
-0.051843 -0.017087 0.287322 116 92 105
-0.052171 -0.016869 0.286395 117 95 107
-0.052500 -0.016652 0.285467 119 95 109
-0.052828 -0.016434 0.284539 117 93 106
-0.053156 -0.016216 0.283612 116 94 106
-0.053485 -0.015999 0.282684 111 90 99
-0.052927 -0.015611 0.281259 109 88 95
-0.053257 -0.015393 0.280328 107 88 94
-0.053586 -0.015174 0.279398 109 89 91
-0.053916 -0.014956 0.278467 106 86 88
-0.054245 -0.014738 0.277536 108 90 90
-0.054575 -0.014519 0.276606 110 92 92
-0.054904 -0.014301 0.275675 115 97 97
-0.055233 -0.014082 0.274745 113 95 93
-0.054686 -0.013689 0.273292 112 96 96
-0.055016 -0.013470 0.272359 113 99 98
-0.055347 -0.013250 0.271425 109 98 94
-0.055677 -0.013031 0.270491 108 95 89
-0.056008 -0.012812 0.269557 111 94 86
-0.056338 -0.012593 0.268624 112 94 84
-0.056669 -0.012374 0.267690 108 91 83
-0.057869 -0.012335 0.267299 104 94 92
-0.058198 -0.012117 0.266369 77 76 81
-0.058528 -0.011898 0.265438 46 50 61
-0.059723 -0.011862 0.265059 24 47 65
-0.060052 -0.011644 0.264132 15 43 65
-0.060380 -0.011427 0.263204 10 38 62
-0.061572 -0.011393 0.262838 14 41 70
-0.061899 -0.011176 0.261913 7 38 67
-0.062226 -0.010959 0.260988 6 37 66
0.687176 0.151949 -0.237126 6 38 63
0.685913 0.152786 -0.240694 8 39 60
0.684650 0.153623 -0.244262 3 35 56
0.682530 0.154272 -0.247250 3 35 58
0.680413 0.154919 -0.250233 0 35 57
0.676588 0.155185 -0.252039 0 34 59
0.671064 0.155065 -0.252650 1 37 61
0.665550 0.154937 -0.253231 7 45 68
0.660048 0.154802 -0.253781 5 45 70
0.653705 0.154468 -0.253704 4 46 71
0.648225 0.154318 -0.254191 6 46 72
0.646147 0.154939 -0.257061 7 47 73
0.643225 0.155364 -0.259319 16 53 80
0.639461 0.155589 -0.260955 0 34 62
0.638237 0.156400 -0.264411 0 25 51
0.636170 0.157014 -0.267251 5 33 57
0.634948 0.157825 -0.270704 2 28 51
0.633726 0.158635 -0.274157 4 30 53
0.632504 0.159445 -0.277610 3 29 54
0.631282 0.160256 -0.281062 5 33 57
0.630059 0.161066 -0.284515 10 38 62
0.628837 0.161876 -0.287968 0 30 54
0.626779 0.162485 -0.290784 11 41 65
0.625558 0.163294 -0.294234 6 38 61
0.623502 0.163900 -0.297041 0 30 55
0.622282 0.164709 -0.300487 3 35 60
0.621062 0.165518 -0.303934 0 34 59
0.619842 0.166327 -0.307381 0 34 56
0.618622 0.167136 -0.310828 0 31 54
0.618231 0.168152 -0.314933 0 28 48
0.617837 0.169170 -0.319043 0 24 43
0.617441 0.170189 -0.323160 0 24 41
0.617043 0.171209 -0.327283 0 20 36
0.615819 0.172021 -0.330742 0 19 33
0.614595 0.172833 -0.334201 0 21 35
0.612548 0.173433 -0.336984 0 23 35
0.610504 0.174032 -0.339760 5 25 36
0.608461 0.174629 -0.342531 1 21 30
0.606421 0.175225 -0.345295 9 29 38
0.603565 0.175606 -0.347365 4 26 39
0.601530 0.176198 -0.350114 4 27 43
0.599498 0.176789 -0.352858 1 26 46
0.595838 0.176946 -0.354200 0 21 38
0.593812 0.177533 -0.356925 2 20 32
0.591788 0.178118 -0.359644 0 12 20
0.588954 0.178484 -0.361650 0 9 11
0.585315 0.178627 -0.362935 0 12 15
0.583300 0.179206 -0.365626 4 24 33
0.581288 0.179783 -0.368312 1 30 48
0.579278 0.180359 -0.370991 52 86 111
0.576464 0.180712 -0.372943 0 33 60
0.575264 0.181507 -0.376332 12 49 75
0.575672 0.182750 -0.381177 15 53 74
0.574471 0.183547 -0.384572 1 32 50
0.573269 0.184344 -0.387967 2 20 34
0.572868 0.185366 -0.392099 2 15 24
0.570865 0.185937 -0.394758 0 12 18
0.568066 0.186280 -0.396667 0 9 13
0.565271 0.186620 -0.398564 7 24 32
0.562481 0.186957 -0.400449 37 55 67
0.558899 0.187061 -0.401570 88 112 124
0.555324 0.187162 -0.402673 59 91 102
0.553342 0.187720 -0.405274 63 99 113
0.549777 0.187813 -0.406346 64 103 118
0.547010 0.188134 -0.408164 18 55 73
0.545038 0.188686 -0.410738 62 97 116
0.543856 0.189469 -0.414075 63 98 118
0.541887 0.190018 -0.416640 58 93 112
0.539920 0.190566 -0.419198 41 78 96
0.538741 0.191347 -0.422529 51 90 107
0.535992 0.191657 -0.424296 53 95 111
0.534031 0.192200 -0.426836 48 90 106
0.532855 0.192980 -0.430159 57 98 116
0.530116 0.193283 -0.431898 65 106 124
0.554957 -0.031299 0.474093 113 82 79
0.555158 -0.030673 0.471665 124 70 68
0.557509 -0.029954 0.469318 134 66 63
0.557704 -0.029324 0.466872 129 72 63
0.556823 -0.028739 0.464384 126 95 90
0.554870 -0.028203 0.461861 96 91 98
0.552918 -0.027669 0.459344 99 96 107
0.552039 -0.027086 0.456861 117 116 132
0.550091 -0.026554 0.454354 97 118 139
0.550282 -0.025921 0.451896 97 133 157
0.923949 -0.001820 0.434757 117 77 75
0.837804 0.002141 0.401152 101 133 148
0.831370 0.002610 0.397960 89 110 127
0.827043 0.003201 0.394726 102 104 117
0.818535 0.003526 0.391666 104 83 90
0.808996 0.003776 0.388689 122 81 75
0.805743 0.004414 0.385493 113 71 55
0.802494 0.005050 0.382309 116 78 59
0.232148 -0.028371 0.395186 55 100 133
0.231571 -0.027988 0.393555 181 236 255
0.230993 -0.027606 0.391924 214 255 255
0.230416 -0.027223 0.390293 210 247 255
0.230869 -0.026764 0.388578 89 134 157
0.578267 0.007920 0.324194 84 98 109
0.575282 0.008381 0.321756 85 99 110
0.571287 0.008751 0.319459 83 99 112
0.567298 0.009118 0.317180 86 102 115
0.564329 0.009568 0.314784 86 104 118
0.559340 0.009838 0.312677 89 107 121
0.554360 0.010102 0.310595 89 107 121
0.550398 0.010451 0.308392 88 106 120
0.547451 0.010886 0.306060 88 106 120
-0.063459 -0.037404 0.369152 111 109 133
-0.063747 -0.037214 0.368340 116 112 137
-0.064034 -0.037023 0.367527 121 115 141
-0.064322 -0.036832 0.366715 126 118 142
-0.064610 -0.036642 0.365902 126 116 140
-0.065867 -0.036567 0.365347 129 117 139
-0.066153 -0.036377 0.364538 128 113 132
-0.065472 -0.036070 0.363465 128 111 129
-0.065760 -0.035879 0.362653 127 106 123
-0.066047 -0.035688 0.361840 125 100 119
-0.065371 -0.035378 0.360756 124 97 112
-0.065659 -0.035186 0.359940 114 88 101
-0.065948 -0.034995 0.359125 106 85 94
-0.048853 -0.030382 0.344491 71 71 79
-0.050115 -0.030305 0.343923 80 80 88
-0.051374 -0.030230 0.343362 94 93 101
-0.051683 -0.030025 0.342489 93 87 97
-0.052940 -0.029951 0.341936 100 92 103
-0.053248 -0.029747 0.341066 108 100 111
-0.054501 -0.029676 0.340523 115 107 120
-0.054807 -0.029472 0.339656 122 114 127
-0.055114 -0.029269 0.338789 130 119 133
-0.055421 -0.029065 0.337922 134 123 137
-0.055728 -0.028862 0.337055 136 125 139
-0.056035 -0.028658 0.336188 136 125 139
-0.055403 -0.028318 0.334976 131 123 136
-0.055711 -0.028113 0.334106 130 124 136
-0.056019 -0.027909 0.333236 130 127 138
-0.055392 -0.027566 0.332012 130 126 140
-0.055701 -0.027361 0.331139 111 109 123
-0.039211 -0.024625 0.323785 101 103 118
-0.039540 -0.024408 0.322857 97 100 115
-0.038937 -0.024048 0.321563 87 93 109
-0.039266 -0.023830 0.320633 69 78 95
-0.039596 -0.023611 0.319702 83 98 117
-0.039925 -0.023393 0.318771 90 108 128
-0.040255 -0.023174 0.317841 85 107 128
-0.045696 -0.018048 0.296477 89 86 97
-0.046930 -0.017989 0.295988 93 83 94
-0.047260 -0.017770 0.295054 97 84 94
-0.047591 -0.017551 0.294120 107 87 98
-0.048820 -0.017495 0.293644 113 91 103
-0.049149 -0.017277 0.292713 115 93 105
-0.049479 -0.017058 0.291783 117 95 107
-0.049808 -0.016840 0.290852 118 96 108
-0.051032 -0.016788 0.290390 118 96 108
-0.051361 -0.016570 0.289463 119 97 109
-0.051689 -0.016352 0.288535 121 97 110
-0.052017 -0.016135 0.287608 121 100 109
-0.052346 -0.015917 0.286680 122 100 112
-0.052674 -0.015699 0.285752 121 99 111
-0.053002 -0.015482 0.284825 120 98 110
-0.053331 -0.015264 0.283897 116 96 107
-0.052773 -0.014874 0.282476 117 97 108
-0.053103 -0.014656 0.281545 114 94 105
-0.053432 -0.014437 0.280615 113 93 102
-0.053761 -0.014219 0.279684 112 89 95
-0.053209 -0.013826 0.278248 112 92 94
-0.053540 -0.013607 0.277314 112 93 95
-0.053870 -0.013388 0.276380 109 93 94
-0.054201 -0.013168 0.275447 111 92 94
-0.054531 -0.012949 0.274513 115 95 96
-0.054862 -0.012730 0.273579 113 93 92
-0.055192 -0.012511 0.272646 116 97 93
-0.055523 -0.012292 0.271712 110 95 88
-0.055853 -0.012073 0.270778 104 93 91
-0.056184 -0.011854 0.269845 100 94 98
-0.056514 -0.011635 0.268911 84 84 94
-0.056845 -0.011415 0.267977 40 48 61
-0.057175 -0.011196 0.267044 49 63 76
-0.058374 -0.011161 0.266655 61 80 94
-0.058703 -0.010943 0.265724 59 85 98
-0.059032 -0.010724 0.264794 31 57 80
-0.060226 -0.010692 0.264417 31 55 79
-0.060555 -0.010474 0.263489 0 21 42
-0.061746 -0.010444 0.263122 0 16 35
-0.062073 -0.010227 0.262197 0 19 36
0.690348 0.155341 -0.234159 0 23 40
0.689941 0.156371 -0.238305 0 22 39
0.690390 0.157592 -0.243030 0 22 39
0.689120 0.158433 -0.246616 0 24 41
0.687851 0.159275 -0.250202 1 24 42
0.684017 0.159539 -0.252044 4 29 49
0.679335 0.159606 -0.253284 9 35 52
0.673809 0.159472 -0.253912 13 40 57
0.666591 0.158943 -0.253328 18 45 62
0.660238 0.158599 -0.253296 19 48 66
0.653049 0.158050 -0.252631 9 40 60
0.647571 0.157885 -0.253122 8 43 62
0.645494 0.158503 -0.255993 26 63 82
0.640880 0.158525 -0.257042 23 58 80
0.638810 0.159137 -0.259892 23 55 78
0.636743 0.159749 -0.262736 17 48 69
0.635521 0.160559 -0.266189 16 47 67
0.633456 0.161169 -0.269024 12 43 63
0.632235 0.161978 -0.272474 9 40 61
0.631014 0.162788 -0.275924 14 44 68
0.629793 0.163597 -0.279374 12 42 66
0.629409 0.164611 -0.283453 9 40 61
0.628187 0.165421 -0.286906 0 31 52
0.626965 0.166232 -0.290359 7 39 60
0.624908 0.166836 -0.293173 9 41 62
0.623687 0.167646 -0.296623 10 42 63
0.622466 0.168455 -0.300072 10 42 63
0.621245 0.169265 -0.303522 17 49 74
0.620024 0.170075 -0.306972 4 36 61
0.618802 0.170884 -0.310422 2 30 54
0.617581 0.171694 -0.313871 1 28 49
0.617187 0.172715 -0.317981 0 22 42
0.615965 0.173525 -0.321434 0 20 38
0.615568 0.174548 -0.325553 0 21 38
0.615168 0.175572 -0.329678 0 18 35
0.613944 0.176384 -0.333137 0 21 39
0.612719 0.177196 -0.336596 1 24 40
0.610674 0.177792 -0.339377 1 24 40
0.608632 0.178387 -0.342151 0 21 34
0.607409 0.179198 -0.345604 1 21 30
0.605370 0.179791 -0.348369 6 26 35
0.603332 0.180382 -0.351128 4 26 39
0.599667 0.180534 -0.352495 0 26 41
0.597636 0.181122 -0.355236 1 24 40
0.593981 0.181267 -0.356572 1 20 34
0.591144 0.181629 -0.358592 0 16 24
0.589123 0.182210 -0.361306 0 11 15
0.587103 0.182789 -0.364013 1 11 12
0.584278 0.183144 -0.366003 0 14 19
0.581456 0.183496 -0.367981 9 31 44
0.580252 0.184294 -0.371383 36 65 83
0.578243 0.184867 -0.374063 6 41 63
0.577844 0.185891 -0.378185 25 62 88
0.576640 0.186689 -0.381586 12 46 71
0.575436 0.187487 -0.384988 1 27 50
0.574232 0.188286 -0.388389 18 37 54
0.573028 0.189084 -0.391790 16 34 46
0.571025 0.189653 -0.394452 0 11 20
0.567428 0.189760 -0.395625 4 13 22
0.565431 0.190324 -0.398269 32 36 45
0.562641 0.190655 -0.400159 38 42 53
0.558265 0.190519 -0.400534 32 40 51
0.555485 0.190844 -0.402394 40 57 67
0.553503 0.191399 -0.404999 48 74 87
0.549939 0.191484 -0.406077 74 108 120
0.547963 0.192034 -0.408663 74 110 126
0.545989 0.192584 -0.411244 47 84 102
0.544017 0.193132 -0.413818 13 50 69
0.542047 0.193679 -0.416386 27 64 83
0.540079 0.194224 -0.418949 79 117 136
0.538114 0.194768 -0.421505 63 105 121
0.536934 0.195550 -0.424836 49 91 107
0.534189 0.195851 -0.426599 41 83 99
0.533012 0.196632 -0.429924 48 86 105
0.531054 0.197171 -0.432459 60 98 117
0.552336 -0.028854 0.474754 131 85 70
0.554692 -0.028130 0.472427 171 82 50
0.555966 -0.027451 0.470039 224 105 65
0.556162 -0.026818 0.467597 219 106 72
0.554209 -0.026285 0.465073 183 110 95
0.551185 -0.025805 0.462521 127 97 99
0.549238 -0.025276 0.460012 114 88 89
0.548362 -0.024695 0.457538 124 88 92
0.547486 -0.024115 0.455065 121 99 102
0.546611 -0.023534 0.452591 100 103 112
0.249957 -0.031849 0.419920 95 133 154
0.249370 -0.031460 0.418262 99 131 144
0.249832 -0.031004 0.416572 96 119 133
0.826416 0.006621 0.395751 170 176 190
0.817912 0.006925 0.392684 110 92 104
0.810468 0.007288 0.389619 138 93 87
0.806170 0.007852 0.386458 141 86 66
0.805008 0.008622 0.383175 143 92 65
0.230806 -0.026773 0.395758 46 81 109
0.231264 -0.026314 0.394056 144 198 224
0.230686 -0.025931 0.392425 176 222 237
0.230109 -0.025548 0.390795 225 255 255
0.230562 -0.025087 0.389080 112 157 180
0.229984 -0.024703 0.387446 19 52 83
0.229405 -0.024320 0.385812 16 37 58
0.583800 0.010490 0.327116 86 96 105
0.580809 0.010949 0.324654 92 102 112
0.577822 0.011405 0.322205 88 101 110
0.572812 0.011679 0.320025 85 99 110
0.569836 0.012128 0.317605 84 100 113
0.564840 0.012392 0.315468 85 101 116
0.562885 0.012925 0.312941 84 102 116
0.557903 0.013180 0.310843 87 106 120
0.554948 0.013616 0.308481 84 103 117
-0.062060 -0.036837 0.370792 89 96 115
-0.063325 -0.036761 0.370214 106 107 127
-0.063612 -0.036570 0.369402 117 114 135
-0.063900 -0.036379 0.368590 119 111 135
-0.064187 -0.036189 0.367777 123 115 138
-0.064475 -0.035998 0.366965 125 116 137
-0.064762 -0.035807 0.366152 125 113 133
-0.065050 -0.035617 0.365340 127 112 131
-0.065338 -0.035426 0.364527 130 109 128
-0.065625 -0.035235 0.363715 130 107 125
-0.065913 -0.035045 0.362903 126 102 118
-0.066200 -0.034854 0.362090 123 99 113
-0.065524 -0.034540 0.361006 118 94 107
-0.065813 -0.034349 0.360191 113 92 101
-0.066101 -0.034158 0.359376 111 90 99
-0.049970 -0.029611 0.345069 71 71 79
-0.051230 -0.029538 0.344503 78 77 83
-0.051539 -0.029333 0.343630 85 82 89
-0.051848 -0.029128 0.342757 99 93 103
-0.053103 -0.029058 0.342204 104 96 107
-0.053411 -0.028854 0.341334 112 104 117
-0.054664 -0.028785 0.340790 119 111 124
-0.054971 -0.028582 0.339923 124 116 129
-0.055278 -0.028378 0.339056 128 120 133
-0.055584 -0.028175 0.338189 131 123 136
-0.055891 -0.027972 0.337322 136 125 139
-0.056198 -0.027768 0.336455 135 124 138
-0.055567 -0.027424 0.335244 131 123 136
-0.055875 -0.027220 0.334374 131 125 139
-0.056183 -0.027016 0.333504 132 128 142
-0.056491 -0.026812 0.332634 131 129 142
-0.055865 -0.026465 0.331408 111 110 124
-0.056174 -0.026260 0.330535 102 104 119
-0.039714 -0.023455 0.323142 96 99 114
-0.040043 -0.023238 0.322215 85 92 108
-0.039442 -0.022874 0.320919 67 79 95
-0.039771 -0.022656 0.319988 81 98 116
-0.040100 -0.022437 0.319058 85 106 125
-0.040430 -0.022219 0.318127 80 105 125
-0.046775 -0.017250 0.297209 93 85 96
-0.047105 -0.017031 0.296275 100 84 95
-0.047436 -0.016812 0.295341 106 89 99
-0.048666 -0.016758 0.294861 112 90 103
-0.048995 -0.016540 0.293930 118 96 109
-0.049325 -0.016321 0.292999 121 99 112
-0.049654 -0.016103 0.292069 123 101 114
-0.050879 -0.016053 0.291603 123 103 115
-0.051207 -0.015835 0.290676 125 105 117
-0.051535 -0.015618 0.289748 124 104 116
-0.051864 -0.015400 0.288820 123 103 115
-0.052192 -0.015182 0.287893 124 104 113
-0.052520 -0.014965 0.286965 124 104 113
-0.052849 -0.014747 0.286038 121 104 114
-0.053177 -0.014529 0.285110 121 104 114
-0.053505 -0.014312 0.284182 121 103 115
-0.052948 -0.013919 0.282762 120 102 114
-0.053278 -0.013700 0.281832 119 99 111
-0.053607 -0.013482 0.280901 117 95 107
-0.053054 -0.013086 0.279469 116 95 102
-0.053385 -0.012867 0.278535 113 92 97
-0.053715 -0.012648 0.277601 112 93 95
-0.054046 -0.012429 0.276668 114 95 97
-0.054376 -0.012210 0.275734 115 95 96
-0.054707 -0.011991 0.274800 110 90 91
-0.055037 -0.011772 0.273867 111 91 90
-0.054493 -0.011370 0.272410 107 92 89
-0.054825 -0.011150 0.271473 90 80 81
-0.055156 -0.010931 0.270537 102 100 111
-0.055488 -0.010711 0.269600 115 126 144
-0.055820 -0.010491 0.268663 113 139 164
-0.057020 -0.010457 0.268264 119 155 181
-0.057351 -0.010238 0.267331 113 153 178
-0.058549 -0.010206 0.266941 56 98 120
-0.058878 -0.009987 0.266011 1 42 62
-0.059208 -0.009769 0.265080 4 36 59
-0.060401 -0.009740 0.264702 33 59 82
-0.060729 -0.009522 0.263775 13 36 52
0.693069 0.157525 -0.226463 3 22 36
0.693523 0.158748 -0.231168 1 19 31
0.693113 0.159782 -0.235320 0 16 27
0.692702 0.160817 -0.239477 0 16 30
0.693145 0.162047 -0.244212 0 18 32
0.692728 0.163086 -0.248385 3 21 35
0.691453 0.163931 -0.251986 3 20 36
0.687615 0.164190 -0.253846 3 19 35
0.682077 0.164051 -0.254521 0 15 28
0.674846 0.163511 -0.253993 0 17 27
0.667629 0.162961 -0.253422 0 18 25
0.660427 0.162401 -0.252809 1 19 29
0.654090 0.162031 -0.252749 1 21 32
0.646917 0.161452 -0.252053 0 24 36
0.644841 0.162066 -0.254926 0 23 37
0.640229 0.162076 -0.255978 3 26 42
0.638160 0.162685 -0.258829 0 22 40
0.636093 0.163294 -0.261674 1 24 40
0.634028 0.163901 -0.264513 0 22 38
0.632807 0.164710 -0.267963 0 21 39
0.631586 0.165520 -0.271413 0 20 41
0.630365 0.166330 -0.274863 0 20 38
0.629144 0.167139 -0.278313 0 18 36
0.628760 0.168156 -0.282391 0 19 37
0.627537 0.168966 -0.285844 0 21 37
0.626315 0.169777 -0.289297 0 22 38
0.625093 0.170587 -0.292750 5 28 44
0.623871 0.171397 -0.296202 5 28 44
0.622648 0.172208 -0.299655 9 35 50
0.621426 0.173018 -0.303108 24 49 71
0.620204 0.173829 -0.306561 26 50 74
0.618153 0.174426 -0.309361 40 62 85
0.616932 0.175236 -0.312810 36 57 78
0.616537 0.176260 -0.316919 10 29 46
0.615315 0.177070 -0.320372 3 20 38
0.614917 0.178096 -0.324490 3 20 36
0.614517 0.179123 -0.328614 6 22 38
0.613293 0.179935 -0.332073 6 27 44
0.612068 0.180747 -0.335532 3 24 43
0.610024 0.181340 -0.338314 2 25 43
0.608801 0.182151 -0.341769 4 27 43
0.607577 0.182962 -0.345225 0 20 33
0.606354 0.183773 -0.348681 4 26 39
0.604315 0.184363 -0.351447 2 26 38
0.601463 0.184730 -0.353515 3 29 44
0.597803 0.184871 -0.354875 0 26 43
0.594961 0.185231 -0.356915 2 28 45
0.591312 0.185364 -0.358242 0 21 32
0.589290 0.185942 -0.360960 0 16 20
0.587270 0.186519 -0.363671 0 13 14
0.585253 0.187095 -0.366377 0 8 11
0.582430 0.187442 -0.368363 0 19 26
0.581224 0.188242 -0.371770 11 35 47
0.580018 0.189041 -0.375177 56 93 109
0.578812 0.189841 -0.378585 17 58 76
0.577606 0.190641 -0.381992 20 58 79
0.575598 0.191210 -0.384670 0 23 45
0.574393 0.192009 -0.388075 0 24 44
0.572388 0.192576 -0.390744 22 45 59
0.570385 0.193142 -0.393407 4 22 32
0.568385 0.193706 -0.396064 10 20 29
0.564794 0.193801 -0.397227 55 54 60
0.562005 0.194126 -0.399119 84 79 86
0.558426 0.194213 -0.400248 65 62 71
0.556439 0.194767 -0.402866 40 40 52
0.554455 0.195321 -0.405478 21 29 42
0.551682 0.195636 -0.407324 48 67 81
0.549703 0.196185 -0.409921 47 76 90
0.546937 0.196495 -0.411746 29 62 77
0.544963 0.197041 -0.414327 64 101 119
0.542992 0.197586 -0.416903 52 90 109
0.541023 0.198130 -0.419472 50 91 109
0.539056 0.198672 -0.422035 61 104 121
0.537091 0.199213 -0.424592 75 118 135
0.535910 0.199995 -0.427927 72 113 131
0.533949 0.200534 -0.430475 64 103 120
0.532769 0.201316 -0.433806 56 93 111
0.549718 -0.026422 0.475411 131 99 104
0.553150 -0.025639 0.473141 255 195 175
0.554424 -0.024954 0.470757 195 108 78
0.554620 -0.024319 0.468320 203 120 102
0.551596 -0.023843 0.465759 182 132 133
0.547504 -0.023425 0.463175 124 113 121
0.545560 -0.022901 0.460674 111 104 112
0.543618 -0.022378 0.458180 111 85 86
0.541679 -0.021857 0.455692 122 82 72
0.541876 -0.021223 0.453257 123 87 75
0.249181 -0.030604 0.422110 94 130 154
0.249645 -0.030147 0.420430 100 133 152
0.249058 -0.029758 0.418772 93 122 136
0.249519 -0.029299 0.417083 94 123 137
0.815320 0.009335 0.397114 163 189 202
0.811014 0.009895 0.393923 170 187 197
0.805669 0.010380 0.390791 121 96 99
0.798246 0.010712 0.387768 152 95 88
0.231534 -0.025022 0.396189 56 80 106
0.230957 -0.024639 0.394558 79 127 163
0.230379 -0.024257 0.392927 182 228 254
0.229802 -0.023874 0.391296 218 255 255
0.229225 -0.023491 0.389665 136 177 195
0.229676 -0.023026 0.387949 41 82 110
0.229098 -0.022642 0.386315 17 43 66
0.585324 0.013450 0.327711 87 97 106
0.583348 0.013996 0.325120 90 99 108
0.580359 0.014448 0.322659 91 101 110
0.576361 0.014804 0.320339 86 99 108
0.571357 0.015063 0.318167 83 99 112
0.568384 0.015504 0.315752 84 102 116
0.564405 0.015848 0.313486 83 103 114
-0.063190 -0.036117 0.371277 94 99 118
-0.063477 -0.035927 0.370464 108 107 125
-0.063765 -0.035736 0.369652 116 111 131
-0.064053 -0.035545 0.368839 120 111 132
-0.064340 -0.035355 0.368027 124 112 132
-0.064628 -0.035164 0.367215 126 113 133
-0.064915 -0.034973 0.366402 126 111 130
-0.065203 -0.034783 0.365590 128 111 129
-0.065491 -0.034592 0.364777 127 104 122
-0.065778 -0.034401 0.363965 128 101 118
-0.066066 -0.034211 0.363152 125 99 112
-0.066353 -0.034020 0.362340 123 95 107
-0.065678 -0.033703 0.361257 118 95 103
-0.065966 -0.033512 0.360442 112 93 99
-0.065294 -0.033193 0.359350 107 92 99
-0.050134 -0.028712 0.345338 80 81 86
-0.051394 -0.028642 0.344772 83 80 87
-0.051703 -0.028437 0.343899 89 84 91
-0.052012 -0.028232 0.343026 97 92 99
-0.053267 -0.028165 0.342472 106 98 109
-0.053575 -0.027961 0.341602 112 104 117
-0.054827 -0.027895 0.341056 120 112 125
-0.055134 -0.027692 0.340189 123 117 131
-0.055441 -0.027488 0.339322 130 124 138
-0.055748 -0.027285 0.338455 134 126 139
-0.056055 -0.027081 0.337588 132 124 137
-0.056361 -0.026878 0.336721 133 125 138
-0.055731 -0.026531 0.335511 131 123 136
-0.056039 -0.026327 0.334641 129 123 137
-0.056347 -0.026123 0.333771 132 128 143
-0.056655 -0.025919 0.332901 131 129 143
-0.056030 -0.025568 0.331676 107 106 122
-0.056339 -0.025363 0.330803 101 102 120
-0.039889 -0.022503 0.323428 94 100 116
-0.040217 -0.022285 0.322500 87 96 111
-0.040546 -0.022068 0.321573 73 86 102
-0.040874 -0.021850 0.320645 74 91 109
-0.040276 -0.021482 0.319344 84 105 124
-0.040605 -0.021263 0.318413 81 106 126
-0.045385 -0.016564 0.298926 96 96 108
-0.045717 -0.016344 0.297989 97 89 102
-0.046951 -0.016291 0.297496 104 90 103
-0.047281 -0.016072 0.296562 112 92 104
-0.047612 -0.015853 0.295628 120 96 109
-0.048841 -0.015803 0.295147 122 100 113
-0.049170 -0.015584 0.294216 125 103 116
-0.049500 -0.015366 0.293286 127 105 118
-0.050725 -0.015319 0.292816 126 106 118
-0.051053 -0.015101 0.291889 127 107 119
-0.051382 -0.014883 0.290961 125 107 119
-0.051710 -0.014665 0.290033 125 107 119
-0.052038 -0.014448 0.289106 124 106 118
-0.052367 -0.014230 0.288178 122 104 116
-0.052695 -0.014012 0.287251 123 105 117
-0.053023 -0.013795 0.286323 122 106 117
-0.053352 -0.013577 0.285395 118 105 115
-0.052794 -0.013182 0.283979 118 105 114
-0.053124 -0.012963 0.283049 117 101 111
-0.053453 -0.012745 0.282118 121 101 112
-0.052900 -0.012347 0.280690 121 99 111
-0.053230 -0.012128 0.279756 115 98 106
-0.053561 -0.011909 0.278822 112 96 99
-0.053891 -0.011690 0.277888 113 95 95
-0.054222 -0.011470 0.276955 113 94 88
-0.054552 -0.011251 0.276021 115 97 93
-0.054006 -0.010848 0.274572 104 90 89
-0.054338 -0.010628 0.273635 88 82 84
-0.054670 -0.010409 0.272698 59 60 65
-0.055001 -0.010189 0.271761 26 35 50
-0.055333 -0.009969 0.270825 56 75 92
-0.055664 -0.009749 0.269888 47 74 95
-0.055996 -0.009529 0.268951 76 112 134
-0.056327 -0.009309 0.268015 113 158 179
-0.057527 -0.009279 0.267618 99 145 168
-0.058724 -0.009250 0.267227 88 132 157
-0.059053 -0.009032 0.266297 108 152 179
-0.059383 -0.008813 0.265366 120 162 186
-0.060576 -0.008787 0.264988 89 127 150
0.692800 0.160168 -0.221227 15 47 70
0.692395 0.161201 -0.225362 4 32 53
0.692848 0.162430 -0.230065 1 26 48
0.693297 0.163662 -0.234780 1 23 44
0.694600 0.165093 -0.240074 0 21 40
0.695896 0.166528 -0.245387 0 19 34
0.695474 0.167573 -0.249571 0 19 33
0.693340 0.168223 -0.252608 0 15 31
0.689500 0.168474 -0.254480 0 16 30
0.683962 0.168322 -0.255168 0 16 29
0.676731 0.167762 -0.254656 0 17 27
0.667814 0.166791 -0.252923 2 21 28
0.659766 0.166009 -0.251728 0 15 25
0.653432 0.165619 -0.251673 0 17 29
0.646263 0.165018 -0.250985 8 26 36
0.644187 0.165630 -0.253858 8 24 37
0.641268 0.166036 -0.256122 6 22 37
0.637509 0.166234 -0.257766 7 23 38
0.635443 0.166839 -0.260612 3 19 34
0.633379 0.167443 -0.263452 3 21 35
0.632158 0.168252 -0.266902 2 20 34
0.630937 0.169062 -0.270352 3 20 36
0.629715 0.169871 -0.273802 1 17 32
0.628494 0.170681 -0.277251 1 17 32
0.628110 0.171701 -0.281329 1 17 32
0.627723 0.172722 -0.285413 3 19 32
0.627334 0.173745 -0.289503 0 13 26
0.626110 0.174557 -0.292962 2 18 31
0.624885 0.175368 -0.296421 0 16 29
0.623661 0.176180 -0.299880 0 16 28
0.622437 0.176992 -0.303338 0 17 31
0.620383 0.177589 -0.306148 0 15 30
0.617504 0.177968 -0.308299 0 17 31
0.616283 0.178778 -0.311749 0 14 27
0.615062 0.179587 -0.315199 0 11 21
0.613840 0.180397 -0.318649 0 13 22
0.613443 0.181425 -0.322763 0 14 23
0.613043 0.182455 -0.326883 0 12 19
0.612642 0.183486 -0.331009 0 15 22
0.611417 0.184298 -0.334468 0 20 31
0.610193 0.185110 -0.337927 1 25 37
0.608969 0.185922 -0.341386 0 26 39
0.607744 0.186733 -0.344845 0 23 37
0.606520 0.187545 -0.348304 0 23 37
0.604480 0.188133 -0.351074 5 28 44
0.601629 0.188494 -0.353147 4 30 47
0.597969 0.188626 -0.354512 2 28 51
0.595127 0.188980 -0.356558 2 26 50
0.591479 0.189105 -0.357890 1 24 42
0.589456 0.189681 -0.360612 0 17 29
0.587436 0.190255 -0.363327 1 14 22
0.585418 0.190829 -0.366037 0 10 16
0.584209 0.191630 -0.369453 0 7 16
0.582999 0.192432 -0.372870 0 14 25
0.580985 0.193003 -0.375567 1 27 40
0.580580 0.194036 -0.379703 52 88 104
0.579371 0.194838 -0.383119 19 60 78
0.578162 0.195640 -0.386535 25 60 82
0.574552 0.195738 -0.387759 0 26 47
0.573346 0.196538 -0.391166 6 27 44
0.571342 0.197102 -0.393836 15 33 45
0.568543 0.197428 -0.395760 12 25 34
0.566544 0.197988 -0.398415 65 66 70
0.563753 0.198310 -0.400318 90 85 89
0.560966 0.198628 -0.402209 83 73 81
0.558183 0.198943 -0.404087 72 62 73
0.555405 0.199256 -0.405954 44 41 52
0.553421 0.199806 -0.408566 12 18 30
0.551439 0.200355 -0.411173 0 13 24
0.549460 0.200903 -0.413773 5 23 35
0.547483 0.201449 -0.416368 45 71 84
0.543935 0.201506 -0.417415 48 77 93
0.541964 0.202048 -0.419991 65 98 115
0.539995 0.202589 -0.422561 60 97 115
0.538029 0.203128 -0.425126 61 100 117
0.536846 0.203912 -0.428466 45 87 103
0.535664 0.204696 -0.431807 56 98 114
0.534481 0.205480 -0.435147 67 106 121
0.548178 -0.023949 0.476116 31 26 46
0.552684 -0.023099 0.473902 112 96 109
0.552883 -0.022463 0.471474 140 119 128
0.552006 -0.021882 0.468997 132 118 131
0.550058 -0.021357 0.466481 122 123 141
0.545969 -0.020949 0.463897 104 121 137
0.542956 -0.020487 0.461365 96 114 138
0.542086 -0.019910 0.458906 110 113 130
0.539080 -0.019452 0.456392 117 92 95
0.539279 -0.018816 0.453965 123 70 64
0.247818 -0.028975 0.422640 102 134 157
0.248283 -0.028516 0.420964 105 130 150
0.248746 -0.028055 0.419282 93 119 136
0.249206 -0.027593 0.417594 153 188 207
0.249665 -0.027129 0.415900 153 196 213
0.807258 0.013052 0.395044 161 207 222
0.799831 0.013371 0.391995 172 182 194
0.793460 0.013758 0.388940 132 91 97
0.231227 -0.023348 0.396691 70 77 96
0.230650 -0.022965 0.395060 53 96 130
0.230072 -0.022582 0.393429 171 220 253
0.229495 -0.022200 0.391798 208 252 255
0.228918 -0.021817 0.390167 215 253 255
0.228340 -0.021434 0.388536 83 128 157
0.228790 -0.020965 0.386818 21 55 82
0.228212 -0.020581 0.385184 13 35 56
0.596965 0.016622 0.329996 33 46 55
0.590912 0.016798 0.327839 90 100 109
0.587914 0.017250 0.325349 91 100 107
0.582893 0.017509 0.323119 89 100 106
0.578893 0.017859 0.320787 87 100 108
0.574900 0.018204 0.318472 85 99 110
0.571924 0.018641 0.316043 82 100 112
0.569962 0.019175 0.313491 82 100 112
-0.063055 -0.035474 0.372339 86 93 112
-0.063343 -0.035283 0.371527 95 98 115
-0.063630 -0.035093 0.370714 110 109 125
-0.063918 -0.034902 0.369902 120 113 131
-0.064206 -0.034711 0.369089 123 112 129
-0.064493 -0.034521 0.368277 125 112 130
-0.064781 -0.034330 0.367464 124 110 127
-0.065068 -0.034139 0.366652 123 105 121
-0.065356 -0.033949 0.365840 123 102 119
-0.065643 -0.033758 0.365027 124 100 116
-0.065931 -0.033567 0.364215 123 97 110
-0.066219 -0.033377 0.363402 126 96 108
-0.065542 -0.033057 0.362324 120 90 100
-0.065831 -0.032866 0.361508 117 92 98
-0.066120 -0.032675 0.360693 110 93 99
-0.050299 -0.027813 0.345608 84 85 90
-0.051558 -0.027745 0.345041 90 87 94
-0.051867 -0.027541 0.344167 94 91 98
-0.052176 -0.027336 0.343294 100 94 104
-0.053431 -0.027271 0.342739 106 98 109
-0.053739 -0.027067 0.341869 113 105 118
-0.054990 -0.027005 0.341323 120 114 128
-0.055297 -0.026802 0.340456 126 120 134
-0.055604 -0.026598 0.339589 131 125 139
-0.055911 -0.026395 0.338722 129 123 137
-0.056218 -0.026191 0.337855 135 127 140
-0.056525 -0.025988 0.336988 131 123 136
-0.055895 -0.025638 0.335779 130 122 137
-0.056203 -0.025434 0.334909 128 122 136
-0.056511 -0.025230 0.334039 132 128 143
-0.056818 -0.025025 0.333169 132 131 147
-0.056194 -0.024672 0.331945 105 106 124
-0.040392 -0.021333 0.322786 81 93 107
-0.040720 -0.021115 0.321858 75 91 106
-0.040121 -0.020745 0.320561 67 86 103
-0.046135 -0.015990 0.300584 97 96 110
-0.046465 -0.015771 0.299650 100 94 106
-0.046796 -0.015552 0.298717 109 95 108
-0.047126 -0.015333 0.297783 115 95 107
-0.047457 -0.015114 0.296849 122 98 112
-0.048687 -0.015066 0.296364 128 102 115
-0.049016 -0.014847 0.295433 128 104 118
-0.049345 -0.014629 0.294503 130 108 121
-0.050571 -0.014584 0.294029 131 109 122
-0.050899 -0.014366 0.293102 130 110 122
-0.051228 -0.014148 0.292174 130 112 126
-0.051556 -0.013931 0.291246 127 109 123
-0.051884 -0.013713 0.290319 127 111 124
-0.052213 -0.013495 0.289391 125 109 122
-0.052541 -0.013278 0.288464 124 106 120
-0.052870 -0.013060 0.287536 125 108 124
-0.053198 -0.012842 0.286608 120 106 119
-0.052640 -0.012445 0.285196 119 106 116
-0.052969 -0.012226 0.284265 118 105 114
-0.053299 -0.012008 0.283335 118 103 110
-0.052745 -0.011607 0.281910 117 100 108
-0.053075 -0.011388 0.280977 117 97 106
-0.053406 -0.011169 0.280043 112 93 97
-0.053736 -0.010950 0.279109 113 94 96
-0.054067 -0.010731 0.278176 107 92 89
-0.054397 -0.010512 0.277242 110 95 90
-0.054728 -0.010293 0.276308 92 81 79
-0.055058 -0.010074 0.275375 59 57 62
-0.054514 -0.009667 0.273923 25 33 44
-0.054846 -0.009447 0.272986 16 33 49
-0.055177 -0.009227 0.272050 11 33 54
-0.055509 -0.009007 0.271113 9 36 57
-0.055841 -0.008787 0.270176 11 41 65
-0.056172 -0.008568 0.269239 20 54 79
0.415813 0.096050 -0.023350 23 59 81
0.416632 0.097042 -0.027015 29 65 87
0.417447 0.098037 -0.030691 33 69 91
0.416527 0.098646 -0.033289 41 77 99
0.414744 0.099061 -0.035338 89 125 149
0.412962 0.099475 -0.037382 99 133 158
0.691265 0.163644 -0.219572 91 121 145
0.691721 0.164877 -0.224261 55 82 109
0.693033 0.166310 -0.229522 143 170 197
0.694338 0.167747 -0.234802 126 156 180
0.694779 0.168990 -0.239533 118 149 169
0.696073 0.170435 -0.244846 5 37 52
0.695649 0.171483 -0.249032 11 35 47
0.694369 0.172332 -0.252648 2 24 37
0.689676 0.172373 -0.253951 3 25 38
0.684991 0.172409 -0.255229 3 23 34
0.676911 0.171626 -0.254144 0 20 31
0.668848 0.170831 -0.253010 2 22 33
0.659954 0.169820 -0.251238 9 29 40
0.652774 0.169208 -0.250598 7 25 39
0.647303 0.168997 -0.251110 0 22 35
0.643534 0.169194 -0.252791 5 29 41
0.640616 0.169593 -0.255056 9 32 46
0.637702 0.169990 -0.257309 17 41 53
0.634793 0.170384 -0.259550 14 36 47
0.632730 0.170984 -0.262391 10 33 41
0.631508 0.171794 -0.265841 10 30 39
0.630287 0.172604 -0.269291 10 30 39
0.629066 0.173413 -0.272741 3 21 31
0.628682 0.174435 -0.276814 4 21 31
0.628296 0.175459 -0.280894 4 21 31
0.627907 0.176484 -0.284980 4 21 29
0.628351 0.177725 -0.289705 4 21 29
0.627124 0.178538 -0.293170 0 17 25
0.625898 0.179352 -0.296635 1 18 26
0.624671 0.180165 -0.300100 0 19 26
0.621786 0.180543 -0.302275 0 17 25
0.619733 0.181137 -0.305085 2 17 24
0.618509 0.181948 -0.308541 1 16 23
0.616460 0.182539 -0.311342 1 14 20
0.615238 0.183350 -0.314795 0 13 19
0.613191 0.183939 -0.317588 0 14 17
0.612793 0.184970 -0.321701 1 15 18
0.612393 0.186003 -0.325820 0 14 17
0.611991 0.187037 -0.329946 1 16 19
0.610766 0.187849 -0.333404 0 17 21
0.609542 0.188661 -0.336863 10 33 39
0.608317 0.189473 -0.340322 9 33 43
0.607093 0.190285 -0.343781 0 22 34
0.605869 0.191096 -0.347240 0 20 34
0.603830 0.191681 -0.350011 4 27 43
0.600979 0.192035 -0.352085 11 34 52
0.597321 0.192158 -0.353454 5 32 53
0.594480 0.192507 -0.355501 6 34 55
0.590834 0.192622 -0.356836 2 29 48
0.588812 0.193195 -0.359559 0 23 37
0.587600 0.193998 -0.362981 0 15 25
0.585582 0.194569 -0.365695 0 14 19
0.584371 0.195371 -0.369114 0 13 19
0.582356 0.195940 -0.371819 0 12 20
0.581147 0.196742 -0.375235 0 14 27
0.580740 0.197779 -0.379373 10 36 53
0.580331 0.198817 -0.383516 29 67 86
0.579120 0.199621 -0.386939 26 64 87
0.577908 0.200424 -0.390361 7 39 60
0.575899 0.200989 -0.393051 5 32 51
0.573891 0.201553 -0.395734 5 24 39
0.571885 0.202115 -0.398411 5 17 31
0.568291 0.202195 -0.399598 66 66 74
0.565498 0.202512 -0.401511 81 76 83
0.561915 0.202585 -0.402665 83 73 82
0.559924 0.203138 -0.405303 73 63 72
0.557934 0.203689 -0.407934 65 58 66
0.555946 0.204239 -0.410560 24 23 31
0.553961 0.204788 -0.413180 4 7 14
0.551190 0.205090 -0.415030 6 11 17
0.549210 0.205635 -0.417634 8 17 24
0.546447 0.205932 -0.419463 11 24 33
0.543688 0.206227 -0.421280 45 63 75
0.540933 0.206518 -0.423084 52 75 89
0.538965 0.207055 -0.425655 60 89 105
0.537780 0.207841 -0.429002 51 87 103
0.536596 0.208626 -0.432349 54 93 108
0.535411 0.209412 -0.435695 49 91 105
0.553294 -0.020502 0.474713 20 31 49
0.552417 -0.019920 0.472236 76 89 108
0.551540 -0.019339 0.469759 126 146 171
0.549592 -0.018818 0.467242 116 140 168
0.544434 -0.018479 0.464617 108 134 161
0.542494 -0.017963 0.462121 85 116 144
0.539487 -0.017510 0.459599 85 112 131
0.538619 -0.016934 0.457147 105 99 109
0.537751 -0.016359 0.454694 114 69 66
0.247041 -0.027740 0.424817 95 130 150
0.246457 -0.027353 0.423168 108 135 156
0.246923 -0.026892 0.421496 97 120 138
0.247386 -0.026428 0.419818 85 112 133
0.247847 -0.025964 0.418134 162 198 222
0.325694 -0.019806 0.414077 155 199 226
0.325027 -0.019363 0.412192 165 211 237
0.324359 -0.018921 0.410306 187 210 226
0.787635 0.016699 0.390145 114 87 96
0.232531 -0.021971 0.398758 134 83 80
0.230920 -0.021673 0.397192 69 67 80
0.230343 -0.021291 0.395561 48 83 111
0.229765 -0.020908 0.393930 125 178 209
0.229188 -0.020525 0.392299 169 222 238
0.228611 -0.020142 0.390669 221 255 255
0.228033 -0.019760 0.389038 108 149 177
0.228483 -0.019287 0.387320 15 54 85
0.227904 -0.018904 0.385686 7 39 62
0.227326 -0.018520 0.384052 3 26 42
0.599499 0.019730 0.330500 1 12 18
0.595476 0.020087 0.328095 94 103 108
0.592475 0.020536 0.325588 94 103 108
0.588464 0.020884 0.323216 90 101 105
0.584459 0.021229 0.320863 88 101 107
0.580461 0.021568 0.318528 87 101 110
0.577480 0.022004 0.316078 86 103 111
0.579550 0.022943 0.312966 86 102 115
-0.062232 -0.034517 0.372360 90 91 109
-0.063496 -0.034449 0.371776 107 106 122
-0.063783 -0.034259 0.370964 119 115 130
-0.064071 -0.034068 0.370152 127 116 132
-0.064358 -0.033877 0.369339 127 110 126
-0.064646 -0.033686 0.368527 117 99 113
-0.064934 -0.033496 0.367714 118 98 110
-0.065221 -0.033305 0.366902 123 99 113
-0.065509 -0.033114 0.366089 123 96 111
-0.065796 -0.032924 0.365277 120 94 105
-0.065119 -0.032603 0.364205 117 90 99
-0.065407 -0.032411 0.363390 119 89 97
-0.065696 -0.032220 0.362574 114 87 94
-0.065985 -0.032029 0.361759 111 88 96
-0.050464 -0.026913 0.345877 87 87 95
-0.051723 -0.026849 0.345309 90 89 97
-0.052032 -0.026644 0.344436 97 94 103
-0.052341 -0.026439 0.343563 104 98 108
-0.053595 -0.026378 0.343007 107 101 111
-0.053903 -0.026174 0.342137 114 108 120
-0.055153 -0.026115 0.341590 122 116 130
-0.055460 -0.025912 0.340723 126 120 134
-0.055767 -0.025708 0.339856 128 121 137
-0.056074 -0.025505 0.338989 130 124 138
-0.056381 -0.025301 0.338122 134 126 141
-0.056688 -0.025098 0.337255 131 123 136
-0.056058 -0.024745 0.336047 129 123 137
-0.056366 -0.024541 0.335177 124 120 135
-0.056674 -0.024336 0.334307 130 129 145
-0.056982 -0.024132 0.333437 129 130 148
