ply
format ascii 1.0
element vertex 1210
property float x
property float y
property float z
property uchar red
property uchar green
property uchar blue
end_header
-0.098508 0.063585 0.349901 111 88 70
-0.098793 0.063774 0.349095 105 84 65
-0.099927 0.063469 0.348611 99 78 61
-0.100212 0.063657 0.347807 79 58 41
-0.100496 0.063846 0.347004 65 43 30
-0.101626 0.063538 0.346532 65 43 32
-0.101909 0.063725 0.345732 63 43 34
-0.102192 0.063913 0.344931 81 64 56
-0.102476 0.064101 0.344131 100 85 78
-0.102759 0.064289 0.343331 121 107 104
-0.103042 0.064477 0.342530 145 134 130
-0.103326 0.064665 0.341730 152 141 139
-0.104447 0.064351 0.341282 150 146 147
-0.104729 0.064538 0.340485 157 157 159
-0.105011 0.064725 0.339688 152 153 157
-0.105293 0.064912 0.338890 155 158 163
-0.105576 0.065099 0.338093 152 157 163
-0.105858 0.065286 0.337296 147 154 160
-0.106140 0.065473 0.336499 144 153 158
0.033797 0.160904 0.247805 153 161 164
0.033323 0.161217 0.246469 153 160 166
0.032850 0.161531 0.245132 154 161 167
-0.119264 0.082633 0.277670 183 182 178
-0.119554 0.082826 0.276849 172 155 137
-0.119845 0.083019 0.276027 182 155 126
-0.120136 0.083212 0.275206 181 155 120
-0.120427 0.083405 0.274384 179 153 120
-0.120718 0.083598 0.273563 183 153 119
-0.121008 0.083790 0.272741 186 160 123
-0.121299 0.083983 0.271920 180 156 120
-0.121590 0.084176 0.271098 178 154 118
-0.122630 0.083808 0.270881 181 157 121
-0.122919 0.084000 0.270062 182 158 122
-0.123209 0.084192 0.269244 178 154 118
-0.123499 0.084384 0.268425 175 151 115
-0.123789 0.084576 0.267607 178 152 115
-0.124078 0.084768 0.266788 177 148 114
-0.124368 0.084960 0.265970 177 151 116
-0.123917 0.085718 0.264526 181 155 120
-0.124207 0.085911 0.263705 180 154 119
-0.124498 0.086104 0.262883 175 149 114
-0.124789 0.086297 0.262062 178 152 117
-0.125817 0.085921 0.261877 180 154 119
-0.126106 0.086113 0.261059 181 152 118
-0.126396 0.086305 0.260240 176 150 113
-0.126686 0.086497 0.259422 179 151 114
-0.126976 0.086689 0.258603 176 148 111
-0.126534 0.087454 0.257132 177 147 111
-0.126825 0.087647 0.256311 176 146 110
-0.127115 0.087839 0.255489 180 150 114
0.069537 0.245058 0.071416 177 147 111
0.068229 0.244868 0.070441 177 147 111
0.068372 0.245831 0.068124 176 148 111
0.067066 0.245639 0.067155 176 148 111
0.065763 0.245446 0.066191 178 150 111
0.063741 0.244672 0.065917 177 149 112
0.062442 0.244475 0.064969 171 143 106
0.061865 0.244858 0.063338 176 148 111
-0.070116 0.045488 0.430786 151 125 98
-0.070402 0.045677 0.429979 151 125 98
-0.070687 0.045866 0.429173 153 128 98
-0.070018 0.046483 0.428346 154 129 99
-0.070305 0.046673 0.427536 156 131 101
-0.070591 0.046863 0.426727 157 132 102
-0.070878 0.047053 0.425917 156 131 101
-0.072114 0.046813 0.425141 155 130 100
-0.072685 0.047191 0.423528 159 132 103
-0.072024 0.047813 0.422680 156 131 101
-0.072310 0.048003 0.421870 158 132 105
-0.072597 0.048193 0.421061 160 134 107
-0.072883 0.048383 0.420252 157 133 105
-0.073170 0.048573 0.419442 158 134 106
-0.074683 0.048516 0.417884 157 131 104
-0.074969 0.048705 0.417078 157 131 104
-0.075254 0.048894 0.416271 158 132 105
-0.076476 0.048645 0.415534 156 130 103
-0.076761 0.048833 0.414731 157 131 104
-0.077045 0.049022 0.413928 158 132 105
-0.076396 0.049651 0.413046 158 132 105
-0.078679 0.051165 0.406595 158 131 102
-0.078965 0.051355 0.405788 159 132 103
-0.079250 0.051544 0.404982 160 133 104
-0.078614 0.052182 0.404064 160 133 104
-0.078900 0.052372 0.403254 159 132 103
-0.079187 0.052562 0.402445 158 131 102
-0.079473 0.052752 0.401636 160 133 104
-0.079760 0.052942 0.400826 160 133 104
-0.080046 0.053132 0.400017 160 133 104
-0.080333 0.053322 0.399207 161 134 105
-0.080619 0.053512 0.398398 167 137 113
-0.080906 0.053702 0.397589 164 134 110
-0.081192 0.053892 0.396779 163 133 109
-0.081479 0.054082 0.395970 162 132 108
-0.081765 0.054272 0.395160 161 131 107
-0.082961 0.054004 0.394499 167 137 113
-0.083246 0.054193 0.393693 167 137 113
-0.082625 0.054841 0.392732 165 135 111
-0.083817 0.054572 0.392080 169 139 113
-0.084103 0.054761 0.391274 164 134 106
-0.084388 0.054950 0.390468 161 131 103
-0.084673 0.055140 0.389661 163 133 107
-0.084959 0.055329 0.388855 161 131 105
-0.085244 0.055518 0.388048 163 133 107
-0.084630 0.056171 0.387066 164 134 110
-0.084917 0.056361 0.386257 164 132 109
-0.085203 0.056551 0.385448 162 134 110
-0.085490 0.056741 0.384638 162 134 110
-0.085776 0.056931 0.383829 163 132 111
-0.084275 0.058056 0.382638 165 134 113
-0.082176 0.059845 0.380416 165 134 113
-0.084250 0.059099 0.379992 164 136 114
-0.085429 0.058821 0.379376 163 135 111
-0.085718 0.059013 0.378561 162 135 108
-0.086894 0.058732 0.377954 160 133 106
-0.087182 0.058923 0.377142 164 136 112
-0.087469 0.059114 0.376329 160 132 108
-0.087757 0.059304 0.375517 164 136 112
-0.088045 0.059495 0.374704 161 133 109
-0.088332 0.059686 0.373892 160 132 108
-0.087738 0.060352 0.372852 159 131 107
-0.088027 0.060544 0.372037 159 133 108
-0.088316 0.060735 0.371221 160 132 108
-0.088604 0.060926 0.370406 159 132 105
-0.088893 0.061118 0.369591 161 131 107
-0.089182 0.061309 0.368775 161 129 106
-0.089470 0.061501 0.367960 161 129 106
-0.089759 0.061692 0.367144 160 129 108
-0.090048 0.061883 0.366329 159 128 107
-0.089465 0.062557 0.365259 155 124 103
-0.090625 0.062266 0.364698 158 128 104
-0.090914 0.062458 0.363882 157 127 103
-0.091202 0.062649 0.363067 157 127 103
-0.091491 0.062840 0.362251 151 121 97
-0.091780 0.063032 0.361436 149 119 95
-0.092068 0.063223 0.360621 155 125 101
-0.092357 0.063414 0.359805 147 115 92
-0.092646 0.063606 0.358990 154 124 100
-0.093796 0.063309 0.358456 150 120 96
-0.094084 0.063499 0.357643 151 121 97
-0.094371 0.063690 0.356831 147 120 93
-0.094659 0.063881 0.356019 143 116 89
-0.094947 0.064071 0.355206 147 120 93
-0.096091 0.063770 0.354691 144 118 91
-0.096377 0.063960 0.353881 138 112 85
-0.096664 0.064150 0.353072 145 121 93
-0.096950 0.064340 0.352262 139 115 87
-0.098089 0.064035 0.351762 138 114 86
-0.098374 0.064224 0.350956 137 111 84
-0.098660 0.064413 0.350149 137 111 86
-0.098945 0.064602 0.349343 133 107 82
-0.100079 0.064294 0.348858 135 107 83
-0.100363 0.064482 0.348054 134 106 82
-0.100647 0.064671 0.347251 132 106 79
-0.100932 0.064859 0.346448 127 101 76
-0.102060 0.064547 0.345978 120 96 72
-0.102343 0.064735 0.345177 122 100 77
-0.102626 0.064923 0.344377 118 95 77
-0.102910 0.065111 0.343577 99 76 60
-0.103193 0.065298 0.342777 97 74 60
-0.103476 0.065486 0.341976 79 55 43
-0.103759 0.065674 0.341176 70 51 36
-0.104879 0.065356 0.340730 61 43 29
-0.105161 0.065543 0.339933 62 45 35
-0.105443 0.065730 0.339136 82 68 59
-0.105726 0.065918 0.338338 97 84 78
-0.106008 0.066105 0.337541 126 117 112
-0.106290 0.066292 0.336744 139 131 128
-0.106572 0.066479 0.335947 149 141 138
0.033545 0.162276 0.248217 151 159 162
0.032260 0.162068 0.247304 149 156 162
0.031788 0.162381 0.245970 153 160 166
-0.104375 0.078803 0.306838 159 168 173
-0.104671 0.079000 0.306001 158 167 172
-0.104967 0.079196 0.305165 156 165 170
-0.120934 0.082362 0.279075 180 177 172
-0.121223 0.082553 0.278259 171 153 133
-0.122267 0.082185 0.278026 181 152 122
-0.122555 0.082376 0.277213 181 155 120
-0.122089 0.083127 0.275813 180 154 119
-0.122377 0.083319 0.274997 182 152 116
-0.123417 0.082948 0.274776 185 157 120
-0.123705 0.083139 0.273964 182 156 119
-0.123992 0.083329 0.273151 181 155 120
-0.124280 0.083520 0.272339 180 156 120
-0.124568 0.083711 0.271526 182 158 122
-0.124855 0.083901 0.270714 182 156 121
-0.125143 0.084092 0.269901 175 149 112
-0.125430 0.084283 0.269089 181 153 116
-0.125718 0.084473 0.268277 178 150 113
-0.126005 0.084664 0.267464 177 151 114
-0.126293 0.084855 0.266652 180 154 119
-0.126581 0.085045 0.265839 178 152 117
-0.126868 0.085236 0.265027 181 155 120
-0.126418 0.085998 0.263581 181 155 120
-0.126707 0.086189 0.262766 180 154 121
-0.127731 0.085808 0.262590 178 152 119
-0.128019 0.085999 0.261777 178 152 115
-0.128306 0.086189 0.260965 181 153 116
-0.128594 0.086380 0.260152 178 150 113
-0.128150 0.087146 0.258688 178 148 112
-0.128439 0.087338 0.257873 178 148 112
-0.128728 0.087529 0.257057 179 149 113
0.068937 0.244820 0.076536 178 148 112
0.069083 0.245784 0.074232 175 145 109
0.068502 0.246169 0.072589 181 151 117
0.067920 0.246555 0.070946 180 150 116
0.067339 0.246940 0.069303 179 149 113
0.066757 0.247326 0.067660 177 149 112
0.066175 0.247712 0.066017 176 148 111
0.063433 0.246350 0.066420 176 148 109
0.062855 0.246733 0.064786 172 144 107
0.061558 0.246533 0.063840 174 146 109
-0.071615 0.045083 0.432656 154 127 97
-0.072182 0.045459 0.431056 155 128 98
-0.071509 0.046076 0.430241 153 126 97
-0.071793 0.046264 0.429438 160 133 104
-0.071124 0.046884 0.428615 157 130 101
-0.071980 0.047451 0.426196 156 129 100
-0.072266 0.047641 0.425389 154 127 98
-0.072551 0.047830 0.424583 156 129 100
-0.072837 0.048019 0.423776 158 131 102
-0.073122 0.048208 0.422970 159 132 103
-0.073408 0.048398 0.422164 158 131 102
-0.073693 0.048587 0.421357 157 132 102
-0.073979 0.048776 0.420551 158 132 105
-0.074264 0.048965 0.419745 160 134 109
-0.074549 0.049155 0.418938 160 134 109
-0.074835 0.049344 0.418132 160 133 106
-0.076059 0.049093 0.417388 159 132 103
-0.076343 0.049281 0.416585 158 131 102
-0.076628 0.049470 0.415781 154 129 99
-0.076912 0.049658 0.414978 158 133 103
-0.077196 0.049847 0.414175 158 133 103
-0.077481 0.050035 0.413371 158 133 103
-0.077765 0.050224 0.412568 153 128 98
-0.080680 0.051094 0.407047 159 133 106
-0.080964 0.051282 0.406246 155 129 102
-0.081247 0.051469 0.405446 160 133 104
-0.080609 0.052109 0.404535 159 132 103
-0.080893 0.052298 0.403731 162 135 106
-0.081177 0.052486 0.402928 159 132 103
-0.080544 0.053129 0.402005 159 132 103
-0.080829 0.053318 0.401198 165 138 109
-0.081114 0.053507 0.400392 160 133 104
-0.081400 0.053697 0.399586 160 133 104
-0.081685 0.053886 0.398779 161 134 105
-0.081971 0.054075 0.397973 162 135 108
-0.082256 0.054264 0.397166 164 137 110
-0.082542 0.054454 0.396360 165 138 111
-0.083737 0.054183 0.395698 161 134 107
-0.084021 0.054372 0.394895 166 139 112
-0.084305 0.054560 0.394092 165 138 111
-0.084590 0.054749 0.393288 168 141 114
-0.084874 0.054937 0.392485 166 139 112
-0.085159 0.055126 0.391682 162 135 108
-0.085443 0.055314 0.390878 162 135 108
-0.085727 0.055503 0.390075 160 133 106
-0.086012 0.055691 0.389272 161 131 107
-0.086296 0.055880 0.388468 164 134 110
-0.085681 0.056535 0.387490 161 131 107
-0.085967 0.056725 0.386684 166 136 112
-0.086252 0.056914 0.385877 169 138 117
-0.086538 0.057103 0.385071 166 135 114
-0.086823 0.057292 0.384265 166 138 114
-0.087109 0.057482 0.383458 161 133 109
-0.086502 0.058142 0.382459 163 135 111
-0.088536 0.058428 0.379427 165 137 113
-0.088821 0.058617 0.378620 162 134 110
-0.089107 0.058806 0.377814 166 138 114
-0.089392 0.058996 0.377007 166 138 114
-0.089678 0.059185 0.376201 167 139 115
-0.089963 0.059374 0.375395 165 137 113
-0.090248 0.059563 0.374588 164 136 112
-0.090534 0.059753 0.373782 163 135 111
-0.089940 0.060422 0.372746 166 139 112
-0.090226 0.060612 0.371937 161 134 105
-0.090513 0.060801 0.371128 161 131 105
-0.090799 0.060991 0.370318 162 132 108
-0.091086 0.061181 0.369509 164 134 110
-0.090498 0.061855 0.368455 164 132 109
-0.090786 0.062045 0.367642 163 131 108
-0.091073 0.062236 0.366830 160 130 106
-0.091361 0.062427 0.366018 159 129 105
-0.091648 0.062617 0.365205 161 131 105
-0.091936 0.062808 0.364393 160 132 108
-0.093091 0.062511 0.363843 158 130 106
-0.093378 0.062701 0.363034 155 127 103
-0.093664 0.062891 0.362224 155 124 103
-0.093951 0.063081 0.361415 156 124 103
-0.094237 0.063271 0.360605 160 128 105
-0.094524 0.063461 0.359796 156 126 102
-0.094810 0.063651 0.358987 157 127 103
-0.095957 0.063348 0.358461 156 126 102
-0.096243 0.063538 0.357655 154 124 100
-0.096528 0.063727 0.356848 154 124 100
-0.095956 0.064411 0.355749 157 127 103
-0.096243 0.064601 0.354940 153 123 99
-0.096529 0.064791 0.354130 154 124 100
-0.096816 0.064981 0.353321 151 123 99
-0.097955 0.064673 0.352817 147 121 96
-0.098241 0.064862 0.352010 151 123 99
-0.098526 0.065052 0.351204 149 122 95
-0.098812 0.065241 0.350397 145 118 91
-0.099945 0.064930 0.349908 148 118 92
-0.100230 0.065118 0.349105 150 120 94
-0.100514 0.065307 0.348302 149 119 93
-0.100799 0.065496 0.347498 144 117 90
-0.101927 0.065181 0.347024 141 115 88
-0.102210 0.065369 0.346224 140 114 89
-0.102494 0.065557 0.345424 138 112 87
-0.102777 0.065744 0.344623 137 111 86
-0.103060 0.065932 0.343823 136 110 87
-0.103344 0.066120 0.343023 138 111 90
-0.103627 0.066308 0.342222 132 105 84
-0.103910 0.066496 0.341422 131 104 83
-0.104193 0.066684 0.340622 126 101 79
-0.105311 0.066362 0.340178 129 107 84
-0.105593 0.066549 0.339381 114 92 71
-0.105876 0.066736 0.338584 114 92 71
-0.106158 0.066923 0.337786 99 77 56
-0.106440 0.067110 0.336989 90 67 49
-0.106722 0.067297 0.336192 75 52 34
-0.107833 0.066971 0.335769 64 43 26
-0.107287 0.067672 0.334597 67 48 33
0.033293 0.163649 0.248628 149 158 165
0.032009 0.163437 0.247714 147 156 161
0.031537 0.163750 0.246380 145 155 157
-0.104532 0.079662 0.307095 159 167 170
-0.104828 0.079859 0.306259 159 167 170
-0.105921 0.079520 0.305888 154 162 165
-0.122132 0.082829 0.279088 169 153 137
-0.123175 0.082457 0.278857 178 154 126
-0.123461 0.082647 0.278047 183 157 122
-0.123748 0.082837 0.277238 182 154 117
-0.124034 0.083027 0.276428 179 150 116
-0.124321 0.083217 0.275619 181 152 118
-0.125357 0.082841 0.275406 185 156 122
-0.125643 0.083031 0.274599 181 152 118
-0.125928 0.083220 0.273793 177 148 114
-0.126214 0.083409 0.272987 183 154 120
-0.126499 0.083598 0.272180 183 157 122
-0.126784 0.083788 0.271374 181 155 120
-0.127070 0.083977 0.270567 177 151 116
-0.126613 0.084737 0.269144 176 150 115
-0.126900 0.084927 0.268334 179 153 118
-0.126446 0.085689 0.266902 179 153 118
-0.127473 0.085307 0.266716 180 154 119
-0.127021 0.086070 0.265277 177 153 117
-0.127309 0.086261 0.264464 181 157 121
-0.127596 0.086452 0.263652 177 153 117
-0.127884 0.086642 0.262839 178 154 118
-0.128171 0.086833 0.262027 177 151 114
-0.129192 0.086446 0.261859 176 148 111
-0.129478 0.086636 0.261050 181 153 116
-0.129765 0.086826 0.260240 177 147 111
-0.130051 0.087016 0.259431 179 149 115
-0.130338 0.087206 0.258622 177 148 114
-0.131351 0.086816 0.258472 178 149 115
0.068774 0.247470 0.074737 176 147 113
0.068193 0.247856 0.073094 177 147 113
0.067611 0.248242 0.071451 181 151 115
0.067752 0.249211 0.069136 178 148 112
0.066448 0.249013 0.068165 179 149 113
0.063845 0.248613 0.066241 177 147 111
0.062547 0.248411 0.065288 177 149 112
0.061969 0.248794 0.063654 175 147 110
-0.073651 0.048220 0.424865 156 129 100
-0.072989 0.048847 0.424025 156 129 100
-0.073559 0.049225 0.422412 158 131 102
-0.073845 0.049415 0.421605 158 133 103
-0.074130 0.049604 0.420799 160 135 105
-0.075357 0.049352 0.420045 160 134 107
-0.074701 0.049982 0.419186 159 133 106
-0.075926 0.049729 0.418439 158 131 102
-0.076210 0.049917 0.417635 159 132 103
-0.076494 0.050106 0.416832 157 132 102
-0.077715 0.049849 0.416096 153 128 98
-0.077998 0.050037 0.415296 156 131 101
-0.078281 0.050225 0.414496 159 134 104
-0.078565 0.050413 0.413695 156 131 101
-0.078848 0.050601 0.412895 155 128 99
-0.080831 0.051915 0.407293 156 129 100
-0.082037 0.051650 0.406597 159 132 103
-0.082319 0.051837 0.405799 164 137 108
-0.081681 0.052479 0.404892 163 136 107
-0.081964 0.052667 0.404092 161 134 105
-0.082247 0.052855 0.403291 159 132 103
-0.081613 0.053500 0.402372 163 136 107
-0.081897 0.053688 0.401569 164 137 108
-0.082182 0.053877 0.400765 162 135 106
-0.082466 0.054065 0.399962 165 138 109
-0.082750 0.054254 0.399159 161 134 105
-0.083035 0.054442 0.398355 165 138 109
-0.083319 0.054631 0.397552 166 139 110
-0.083604 0.054819 0.396749 164 139 109
-0.083888 0.055008 0.395945 165 139 112
-0.084172 0.055196 0.395142 165 138 111
-0.084457 0.055385 0.394339 166 139 112
-0.084741 0.055574 0.393535 164 137 110
-0.085025 0.055762 0.392732 169 142 115
-0.085310 0.055951 0.391929 164 137 110
-0.085594 0.056139 0.391125 161 134 107
-0.086780 0.055860 0.390487 161 134 107
-0.087063 0.056048 0.389686 165 135 109
-0.087347 0.056235 0.388886 163 133 109
-0.086732 0.056893 0.387912 163 133 109
-0.087016 0.057082 0.387109 166 136 112
-0.087300 0.057270 0.386305 166 136 112
-0.087585 0.057459 0.385502 169 139 115
-0.087869 0.057647 0.384699 167 139 115
-0.088153 0.057836 0.383895 162 134 110
-0.088438 0.058025 0.383092 164 136 112
-0.090180 0.058114 0.380883 167 140 113
-0.089575 0.058779 0.379879 165 138 111
-0.089860 0.058967 0.379075 167 140 113
-0.090144 0.059156 0.378272 168 141 114
-0.090428 0.059344 0.377469 165 138 111
-0.090713 0.059533 0.376665 163 136 109
-0.090997 0.059721 0.375862 166 139 112
-0.091281 0.059910 0.375059 166 139 112
-0.091566 0.060098 0.374255 163 136 109
-0.091850 0.060287 0.373452 167 140 111
-0.092134 0.060476 0.372649 161 134 107
-0.092419 0.060664 0.371845 166 136 110
-0.091827 0.061338 0.370805 168 138 114
-0.092113 0.061527 0.369998 168 138 114
-0.092398 0.061716 0.369192 163 133 109
-0.092684 0.061905 0.368385 162 132 108
-0.092969 0.062095 0.367579 160 132 108
-0.093255 0.062284 0.366773 168 138 112
-0.093540 0.062473 0.365966 162 132 106
-0.093825 0.062662 0.365160 161 134 107
-0.094111 0.062852 0.364354 161 133 109
-0.094396 0.063041 0.363547 162 132 108
-0.094682 0.063230 0.362741 159 129 105
-0.094967 0.063419 0.361935 163 131 108
-0.095253 0.063609 0.361128 163 128 106
-0.095538 0.063798 0.360322 161 131 105
-0.096684 0.063492 0.359795 164 134 108
-0.096969 0.063681 0.358992 159 129 103
-0.097253 0.063869 0.358189 162 132 106
-0.097537 0.064058 0.357385 160 130 104
-0.096965 0.064744 0.356290 161 131 105
-0.097251 0.064933 0.355484 156 126 100
-0.097536 0.065123 0.354677 157 127 101
-0.097822 0.065312 0.353871 158 131 104
-0.098107 0.065501 0.353065 155 128 101
-0.098392 0.065690 0.352258 157 130 103
-0.098678 0.065880 0.351452 157 130 103
-0.099812 0.065566 0.350959 155 128 101
-0.100097 0.065755 0.350155 154 127 100
-0.100381 0.065943 0.349352 155 128 101
-0.100665 0.066132 0.348549 155 128 101
-0.101794 0.065815 0.348071 151 124 97
-0.102078 0.066003 0.347270 155 128 101
-0.102361 0.066190 0.346470 150 123 96
-0.102644 0.066378 0.345670 148 121 94
-0.102928 0.066566 0.344870 148 120 96
-0.103211 0.066754 0.344069 147 119 95
-0.103494 0.066942 0.343269 149 121 97
-0.103777 0.067130 0.342469 146 118 94
-0.104061 0.067317 0.341668 143 117 92
-0.105179 0.066993 0.341221 139 113 88
-0.105461 0.067180 0.340423 140 114 89
-0.105743 0.067367 0.339626 141 115 90
-0.106026 0.067555 0.338829 140 114 89
-0.106308 0.067742 0.338032 136 110 85
-0.106590 0.067929 0.337234 138 112 87
-0.106872 0.068116 0.336437 133 107 82
-0.107982 0.067786 0.336014 132 106 79
-0.108263 0.067973 0.335219 131 105 78
0.033042 0.165021 0.249039 143 138 134
0.032568 0.165335 0.247702 144 144 144
0.031286 0.165120 0.246791 149 150 152
-0.105782 0.080180 0.306978 156 163 171
-0.106077 0.080376 0.306144 153 160 168
-0.123041 0.083098 0.279915 180 166 153
-0.124082 0.082723 0.279685 182 162 137
-0.124367 0.082912 0.278879 183 157 124
-0.125405 0.082535 0.278659 182 154 117
-0.125689 0.082723 0.277855 181 153 116
-0.125974 0.082912 0.277052 181 155 120
-0.126258 0.083100 0.276249 177 151 116
-0.126543 0.083289 0.275445 183 154 120
-0.126827 0.083477 0.274642 179 150 116
-0.127111 0.083666 0.273839 181 152 118
-0.127396 0.083854 0.273035 178 152 117
-0.127680 0.084043 0.272232 180 154 119
-0.127964 0.084232 0.271429 174 148 113
-0.127507 0.084994 0.270009 174 148 113
-0.127792 0.085183 0.269203 175 149 114
-0.128078 0.085372 0.268396 177 151 116
-0.128363 0.085562 0.267590 177 151 116
-0.127911 0.086328 0.266155 177 151 116
-0.128198 0.086518 0.265346 178 152 115
-0.128484 0.086708 0.264536 180 156 118
-0.128771 0.086898 0.263727 179 155 117
-0.129057 0.087087 0.262918 179 153 116
-0.130076 0.086697 0.262752 176 148 111
-0.130361 0.086886 0.261945 181 153 116
-0.130647 0.087076 0.261139 179 150 116
-0.130932 0.087265 0.260333 178 149 115
-0.131218 0.087454 0.259526 178 149 115
-0.132230 0.087060 0.259379 176 147 113
0.068608 0.250128 0.072935 173 145 108
0.068025 0.250515 0.071289 177 149 112
0.067442 0.250901 0.069643 176 146 110
0.066860 0.251287 0.067997 177 147 111
0.064256 0.250882 0.066065 178 148 112
0.062958 0.250678 0.065108 177 149 112
0.062378 0.251062 0.063471 177 149 112
0.129146 0.123874 0.467476 149 126 95
0.128651 0.124202 0.466079 149 126 95
0.128156 0.124530 0.464681 153 128 98
-0.082187 0.052468 0.406842 161 134 104
-0.082469 0.052655 0.406045 163 136 106
-0.081831 0.053301 0.405138 161 134 104
-0.082115 0.053488 0.404338 159 132 102
-0.082398 0.053676 0.403538 158 131 102
-0.082681 0.053864 0.402737 164 137 108
-0.082049 0.054513 0.401816 162 135 106
-0.083248 0.054240 0.401137 164 137 108
-0.082617 0.054890 0.400209 166 139 110
-0.082902 0.055078 0.399406 162 135 106
-0.083186 0.055267 0.398602 163 136 107
-0.083470 0.055456 0.397799 165 138 109
-0.084664 0.055179 0.397135 165 140 110
-0.084948 0.055367 0.396335 164 138 111
-0.085231 0.055555 0.395535 167 140 113
-0.085514 0.055742 0.394734 166 139 112
-0.085797 0.055930 0.393934 167 140 113
-0.086081 0.056118 0.393134 165 138 111
-0.086364 0.056306 0.392333 164 137 110
-0.086647 0.056494 0.391533 161 134 107
-0.086931 0.056681 0.390733 162 135 108
-0.087214 0.056869 0.389933 170 140 114
-0.087497 0.057057 0.389132 165 135 109
-0.087781 0.057245 0.388332 167 137 111
-0.088064 0.057433 0.387532 169 139 113
-0.087451 0.058095 0.386552 163 133 107
-0.087736 0.058284 0.385749 171 141 115
-0.088914 0.057996 0.385131 166 139 112
-0.089197 0.058184 0.384330 164 137 110
-0.090330 0.058935 0.381129 167 140 113
-0.090613 0.059123 0.380329 167 140 113
-0.090897 0.059311 0.379529 170 143 116
-0.091180 0.059499 0.378728 167 140 113
-0.091463 0.059687 0.377928 167 140 113
-0.091747 0.059875 0.377128 167 140 113
-0.092030 0.060062 0.376327 167 140 113
-0.092313 0.060250 0.375527 164 137 110
-0.092596 0.060438 0.374727 165 138 111
-0.092880 0.060626 0.373926 168 141 114
-0.093163 0.060814 0.373126 167 140 113
-0.093446 0.061002 0.372326 168 141 114
-0.093730 0.061189 0.371526 167 137 111
-0.094013 0.061377 0.370725 168 138 112
-0.094296 0.061565 0.369925 167 137 111
-0.093707 0.062243 0.368879 164 134 108
-0.094863 0.061941 0.368324 163 136 109
-0.094276 0.062620 0.367272 164 137 108
-0.094561 0.062809 0.366469 165 138 109
-0.094845 0.062997 0.365666 165 138 111
-0.094263 0.063679 0.364602 165 135 109
-0.095414 0.063374 0.364059 165 135 109
-0.095698 0.063563 0.363256 165 133 108
-0.095982 0.063751 0.362452 170 136 111
-0.096267 0.063940 0.361649 166 132 107
-0.096551 0.064128 0.360846 166 134 109
-0.097696 0.063819 0.360321 170 138 113
-0.097979 0.064007 0.359521 164 132 107
-0.098262 0.064195 0.358721 168 136 111
-0.097689 0.064883 0.357632 166 134 109
-0.097973 0.065071 0.356829 164 134 108
-0.097402 0.065761 0.355732 159 129 103
-0.097688 0.065950 0.354925 160 130 104
-0.097973 0.066140 0.354119 164 134 108
-0.098259 0.066329 0.353313 162 132 106
-0.098544 0.066518 0.352506 165 135 109
-0.099679 0.066202 0.352009 160 130 104
-0.099964 0.066391 0.351206 159 132 103
-0.100248 0.066579 0.350402 159 132 103
-0.101378 0.066261 0.349917 161 134 105
-0.101662 0.066449 0.349117 158 131 102
-0.101945 0.066636 0.348317 158 131 102
-0.102228 0.066824 0.347517 157 130 101
-0.102512 0.067012 0.346716 155 125 99
-0.102795 0.067200 0.345916 157 127 101
-0.103078 0.067388 0.345116 157 127 101
-0.103362 0.067576 0.344315 156 126 100
-0.103645 0.067763 0.343515 154 124 98
-0.103928 0.067951 0.342715 156 126 102
-0.104211 0.068139 0.341914 156 126 102
-0.105329 0.067812 0.341466 150 122 98
-0.105611 0.067999 0.340669 151 123 99
-0.105894 0.068186 0.339871 149 121 97
-0.106176 0.068373 0.339074 151 124 97
-0.106458 0.068560 0.338277 151 124 97
-0.106740 0.068747 0.337480 144 118 91
-0.107022 0.068934 0.336682 145 119 92
-0.107305 0.069122 0.335885 143 118 87
-0.107587 0.069309 0.335088 142 117 86
-0.105939 0.081036 0.307234 156 161 167
-0.106624 0.082558 0.302590 157 168 172
-0.106920 0.082755 0.301753 154 163 168
-0.108005 0.082406 0.301399 153 160 166
-0.108300 0.082601 0.300565 156 163 169
-0.123948 0.083362 0.280740 174 164 152
-0.124988 0.082982 0.280513 182 164 140
-0.125272 0.083171 0.279709 180 157 125
-0.125556 0.083359 0.278906 180 154 117
-0.125841 0.083548 0.278103 181 155 118
-0.126875 0.083165 0.277890 179 153 118
-0.127158 0.083353 0.277090 174 148 113
-0.127441 0.083541 0.276290 183 154 120
-0.127725 0.083729 0.275490 181 152 118
-0.128008 0.083917 0.274689 177 151 116
-0.128291 0.084104 0.273889 175 149 114
-0.128574 0.084292 0.273089 179 153 118
-0.128858 0.084480 0.272288 176 152 116
-0.129141 0.084668 0.271488 175 149 114
-0.128684 0.085433 0.270069 177 148 114
-0.128801 0.086579 0.267032 180 152 115
-0.129086 0.086768 0.266225 181 153 116
-0.129942 0.087336 0.263806 175 149 114
-0.130228 0.087525 0.263000 176 150 115
-0.130513 0.087714 0.262193 182 153 119
-0.131528 0.087319 0.262036 182 153 119
-0.132097 0.087696 0.260429 180 151 117
0.070915 0.252219 0.075418 176 150 115
0.069022 0.252407 0.072777 175 149 112
0.067991 0.254158 0.067157 174 146 109
0.066103 0.254342 0.064532 179 149 113
0.066237 0.255321 0.062200 177 149 112
0.064936 0.255116 0.061233 179 151 114
0.127899 0.124890 0.467832 151 128 97
0.128388 0.125636 0.466509 154 131 100
0.127893 0.125964 0.465111 151 128 97
0.128380 0.126713 0.463778 151 126 96
-0.083259 0.052827 0.407189 161 134 104
-0.083540 0.053013 0.406395 161 134 104
-0.082902 0.053661 0.405493 159 132 102
-0.083184 0.053848 0.404695 161 134 104
-0.082832 0.054686 0.402983 164 137 108
-0.083115 0.054874 0.402183 161 134 105
-0.087699 0.056842 0.391939 165 138 111
-0.087982 0.057029 0.391142 166 139 112
-0.091047 0.060133 0.379775 170 143 116
-0.091331 0.060321 0.378974 169 142 115
-0.091614 0.060508 0.378174 168 141 114
-0.092181 0.060884 0.376574 165 138 111
-0.092464 0.061072 0.375773 163 136 109
-0.093314 0.061635 0.373372 167 140 113
-0.093597 0.061823 0.372572 169 142 115
-0.093880 0.062011 0.371772 165 138 111
-0.094164 0.062199 0.370971 171 141 115
-0.094447 0.062387 0.370171 169 139 113
-0.095602 0.062081 0.369616 165 135 107
-0.095013 0.062762 0.368571 170 140 112
-0.095297 0.062950 0.367770 167 140 111
-0.095580 0.063138 0.366970 167 140 111
-0.094996 0.063822 0.365913 168 138 110
-0.096430 0.063701 0.364569 166 134 109
-0.096996 0.064077 0.362968 173 139 112
-0.097280 0.064265 0.362168 166 132 105
-0.097846 0.064641 0.360568 171 137 112
-0.098988 0.064327 0.360048 171 137 112
-0.098413 0.065016 0.358967 169 137 112
-0.098696 0.065204 0.358167 168 136 111
-0.101812 0.067270 0.349363 162 135 106
-0.102662 0.067834 0.346962 161 134 105
-0.103786 0.067508 0.346495 160 133 104
-0.103512 0.068397 0.344562 159 129 101
-0.104633 0.068069 0.344103 162 132 106
-0.104915 0.068256 0.343306 163 133 107
-0.105761 0.068817 0.340914 162 132 106
-0.106044 0.069005 0.340117 162 132 106
-0.106326 0.069192 0.339319 153 123 97
-0.105695 0.083768 0.303212 160 160 162
-0.105992 0.083965 0.302372 161 162 166
-0.107078 0.083614 0.302011 160 164 167
-0.107374 0.083810 0.301174 159 164 168
-0.107670 0.084007 0.300337 157 165 168
-0.126175 0.083423 0.280537 177 156 125
-0.126459 0.083611 0.279737 176 152 116
-0.126742 0.083799 0.278937 180 154 117
-0.127025 0.083987 0.278137 181 155 120
-0.127309 0.084175 0.277336 178 152 117
-0.127592 0.084363 0.276536 176 147 113
-0.128621 0.083974 0.276335 185 156 122
-0.128903 0.084161 0.275538 182 156 121
-0.129185 0.084348 0.274741 178 152 117
-0.129468 0.084535 0.273943 176 152 116
0.071774 0.253140 0.079230 179 153 118
0.071189 0.253528 0.077578 175 149 114
0.070605 0.253916 0.075926 173 147 112
0.069295 0.253713 0.074934 175 149 114
0.068712 0.254100 0.073284 173 149 113
0.067947 0.257820 0.063004 176 148 111
0.067360 0.258209 0.061346 176 148 111
0.065341 0.257405 0.061056 175 147 110
0.127636 0.126322 0.468261 148 125 94
0.127143 0.126649 0.466867 152 129 98
0.126649 0.126976 0.465472 148 125 94
0.126155 0.127303 0.464078 149 124 94
0.126641 0.128055 0.462746 151 124 95
-0.083971 0.054015 0.405845 159 132 102
-0.096034 0.063087 0.369063 171 142 112
-0.096316 0.063274 0.368266 167 140 110
-0.104366 0.083644 0.307669 108 86 65
-0.104664 0.083842 0.306829 100 77 59
-0.105062 0.085180 0.302999 89 69 60
-0.106150 0.084827 0.302630 105 86 79
-0.106447 0.085024 0.301791 121 106 101
-0.106744 0.085221 0.300951 135 124 122
-0.107042 0.085418 0.300111 152 144 142
-0.106368 0.087119 0.296607 158 159 161
0.071904 0.253470 0.083686 181 155 120
0.071320 0.253858 0.082037 175 149 114
0.070009 0.253653 0.081038 179 153 118
0.070152 0.254632 0.078739 179 153 118
0.069569 0.255019 0.077090 172 146 109
0.068985 0.255406 0.075441 175 151 113
0.068401 0.255793 0.073792 174 150 114
0.067817 0.256180 0.072143 173 147 112
0.067954 0.257163 0.069825 178 152 117
0.068089 0.258147 0.067502 176 148 111
0.068222 0.259133 0.065173 175 147 110
0.068352 0.260120 0.062837 174 146 109
0.066331 0.259313 0.062537 174 146 109
0.065745 0.259701 0.060881 176 148 111
0.127374 0.127753 0.468690 152 129 98
0.125898 0.127655 0.467223 150 127 96
0.125406 0.127982 0.465832 150 125 95
0.124913 0.128308 0.464441 150 123 94
-0.081922 0.068444 0.374480 169 144 114
-0.103930 0.084112 0.309606 149 124 94
-0.105024 0.083761 0.309219 145 120 90
-0.105320 0.083957 0.308382 145 118 91
-0.105616 0.084154 0.307545 145 118 91
-0.105912 0.084350 0.306709 142 112 86
-0.105416 0.085098 0.305408 139 109 83
-0.105714 0.085295 0.304568 136 109 82
-0.105221 0.086045 0.303258 125 98 71
-0.105519 0.086243 0.302415 125 99 74
-0.105818 0.086440 0.301573 112 90 67
-0.105329 0.087193 0.300251 106 85 64
-0.105629 0.087392 0.299405 89 70 53
-0.105928 0.087590 0.298559 85 68 52
-0.106227 0.087789 0.297713 78 60 46
-0.105745 0.088545 0.296376 82 64 52
0.072030 0.253798 0.088129 181 155 118
0.071447 0.254184 0.086483 182 156 119
0.070865 0.254570 0.084837 180 154 117
0.069554 0.254362 0.083836 176 150 113
0.068973 0.254748 0.082193 173 147 110
0.068391 0.255134 0.080550 174 148 111
0.068534 0.256115 0.078252 176 150 115
0.067228 0.255905 0.077264 172 148 112
0.068091 0.257486 0.074299 174 148 113
0.068228 0.258471 0.071986 177 151 116
0.068363 0.259458 0.069666 173 147 112
0.067777 0.259847 0.068011 179 150 116
0.068039 0.261826 0.063348 174 146 109
0.066020 0.261012 0.063046 176 148 111
0.065434 0.261400 0.061390 174 146 109
0.126129 0.128757 0.469043 150 127 96
0.125636 0.129084 0.467651 150 125 95
0.125144 0.129410 0.466260 149 124 94
-0.080012 0.069011 0.377881 169 142 113
-0.080309 0.069208 0.377041 172 145 116
-0.081488 0.068911 0.376410 167 140 111
-0.081784 0.069107 0.375574 167 140 111
-0.082959 0.068807 0.374951 168 141 112
-0.083254 0.069003 0.374118 169 142 113
-0.084427 0.068701 0.373505 169 142 113
-0.084721 0.068896 0.372674 169 142 112
-0.104885 0.084424 0.310313 165 138 109
-0.105181 0.084620 0.309476 159 132 103
-0.105477 0.084816 0.308639 159 134 104
-0.105773 0.085013 0.307803 157 132 102
-0.106070 0.085209 0.306966 163 138 108
-0.106366 0.085405 0.306129 156 133 102
-0.105872 0.086157 0.304826 159 136 102
-0.105380 0.086910 0.303517 151 129 92
-0.104890 0.087664 0.302202 147 124 90
-0.105189 0.087863 0.301357 149 126 94
-0.105488 0.088061 0.300511 147 124 93
-0.105003 0.088819 0.299184 142 119 88
-0.105303 0.089018 0.298335 138 114 86
-0.105604 0.089217 0.297486 130 106 78
-0.105904 0.089416 0.296637 130 104 77
-0.106205 0.089616 0.295789 128 102 75
-0.106505 0.089815 0.294940 122 96 71
-0.114123 0.088390 0.289613 147 142 136
-0.114417 0.088585 0.288782 153 150 145
-0.115771 0.088403 0.287657 159 159 157
-0.116064 0.088598 0.286829 165 167 166
-0.116357 0.088792 0.286002 164 168 169
-0.116649 0.088986 0.285174 166 170 173
-0.116942 0.089180 0.284346 169 174 178
0.073618 0.255309 0.091297 177 149 112
0.073034 0.255696 0.089648 177 149 112
0.072450 0.256083 0.087999 178 153 113
0.069245 0.256049 0.084342 177 151 114
0.068663 0.256435 0.082699 178 152 115
0.067357 0.256222 0.081707 174 148 111
0.067500 0.257206 0.079413 178 152 117
0.066919 0.257592 0.077770 174 150 114
0.067780 0.259179 0.074806 176 150 115
0.067917 0.260167 0.072494 177 148 114
0.068052 0.261157 0.070175 176 147 113
0.067466 0.261546 0.068520 177 148 114
0.066880 0.261934 0.066865 174 146 109
0.066294 0.262323 0.065210 175 147 110
0.064993 0.262106 0.064233 176 148 111
0.063694 0.261888 0.063262 175 147 110
-0.081053 0.069377 0.378341 168 141 111
-0.081349 0.069573 0.377504 167 140 110
-0.081645 0.069770 0.376668 168 141 111
-0.082821 0.069467 0.376042 170 143 113
-0.083995 0.069164 0.375422 170 143 113
-0.084289 0.069359 0.374591 172 145 115
-0.084583 0.069554 0.373760 169 142 112
-0.084877 0.069749 0.372930 170 143 113
-0.085171 0.069944 0.372099 173 146 116
-0.085465 0.070138 0.371268 171 146 115
-0.085759 0.070333 0.370438 165 140 110
0.068887 0.174457 0.292323 176 145 116
0.068388 0.174788 0.290913 176 145 116
0.067889 0.175118 0.289503 175 144 116
0.067390 0.175449 0.288094 175 144 116
0.067733 0.176304 0.286368 175 144 116
0.065551 0.175587 0.285594 174 140 112
-0.105339 0.085479 0.309733 166 139 110
-0.105635 0.085675 0.308897 167 140 111
-0.105931 0.085872 0.308060 169 142 113
-0.106227 0.086068 0.307223 172 145 116
-0.106523 0.086264 0.306387 170 143 114
-0.106030 0.087019 0.305085 165 140 110
-0.105538 0.087775 0.303777 168 143 113
-0.105049 0.088533 0.302463 161 136 106
-0.105348 0.088731 0.301617 167 140 111
-0.104862 0.089491 0.300294 161 134 105
-0.105163 0.089690 0.299445 164 137 107
-0.105463 0.089889 0.298596 160 134 101
-0.105764 0.090089 0.297747 161 132 100
-0.105283 0.090852 0.296409 161 135 102
-0.106365 0.090487 0.296050 155 129 96
-0.107743 0.090319 0.294851 158 131 101
-0.114279 0.089243 0.289868 109 87 66
-0.114573 0.089438 0.289038 107 84 68
-0.115633 0.089059 0.288739 100 77 63
-0.115926 0.089253 0.287911 101 78 64
-0.116219 0.089447 0.287084 99 80 65
-0.117275 0.089065 0.286797 104 86 72
-0.117567 0.089259 0.285973 115 98 88
-0.117859 0.089452 0.285148 128 115 106
0.073307 0.257002 0.091804 178 149 115
0.072724 0.257389 0.090155 178 150 113
0.071410 0.257177 0.089141 174 149 109
0.068209 0.257136 0.085491 179 153 116
0.067629 0.257521 0.083851 177 151 114
0.067048 0.257906 0.082211 176 150 113
0.066468 0.258291 0.080571 175 149 114
0.067740 0.262857 0.070685 178 149 115
0.067154 0.263245 0.069029 177 148 114
0.066568 0.263634 0.067374 174 145 111
0.065267 0.263415 0.066393 175 147 110
-0.085030 0.069514 0.375890 165 138 108
-0.085323 0.069708 0.375062 174 147 117
-0.085615 0.069903 0.374235 172 145 115
-0.085908 0.070097 0.373407 175 148 118
-0.086201 0.070291 0.372579 171 144 114
-0.086494 0.070485 0.371752 170 143 113
-0.087659 0.070173 0.371155 169 142 112
0.066929 0.174856 0.293364 174 145 115
0.066432 0.175186 0.291960 173 144 114
0.065936 0.175515 0.290557 175 146 116
0.065439 0.175845 0.289153 176 145 116
0.064100 0.175647 0.288065 180 149 120
0.063604 0.175976 0.286665 177 146 117
-0.106586 0.085976 0.309606 173 146 116
-0.106881 0.086171 0.308773 176 149 119
-0.107176 0.086367 0.307939 175 148 118
-0.106681 0.087123 0.306644 176 149 119
-0.106188 0.087881 0.305343 173 146 116
-0.105697 0.088640 0.304036 173 146 117
-0.105208 0.089401 0.302723 174 147 118
-0.105507 0.089600 0.301877 172 145 115
-0.105022 0.090362 0.300555 173 146 116
-0.105322 0.090562 0.299706 174 148 115
-0.105623 0.090761 0.298857 172 146 113
-0.105923 0.090960 0.298008 168 142 109
-0.106224 0.091159 0.297159 170 144 111
-0.106524 0.091359 0.296311 164 140 106
-0.106825 0.091558 0.295462 168 142 109
-0.107903 0.091188 0.295111 174 145 113
-0.114436 0.090096 0.290124 162 137 106
-0.114730 0.090291 0.289293 158 133 103
-0.115789 0.089908 0.288993 158 132 105
-0.116082 0.090103 0.288166 148 122 95
-0.117138 0.089718 0.287875 150 126 98
-0.117430 0.089912 0.287051 141 117 89
-0.117722 0.090105 0.286226 134 110 82
-0.118014 0.090299 0.285402 124 100 72
0.069790 0.258652 0.088639 177 151 114
0.068481 0.258435 0.087636 172 146 109
0.067901 0.258820 0.085996 174 150 114
0.067320 0.259204 0.084356 177 153 117
0.066740 0.259589 0.082716 177 153 115
0.066159 0.259974 0.081076 172 148 110
0.063657 0.264887 0.065926 173 145 108
0.061647 0.264050 0.065636 176 148 111
-0.086949 0.068271 0.379235 168 141 112
-0.086359 0.068967 0.378211 167 140 110
-0.086650 0.069160 0.377389 168 141 111
-0.086063 0.069858 0.376356 163 136 106
-0.086355 0.070052 0.375532 166 139 109
-0.086647 0.070245 0.374707 175 148 118
-0.086939 0.070439 0.373882 172 145 115
-0.088685 0.070510 0.371639 172 145 115
-0.088976 0.070702 0.370817 173 146 117
0.066665 0.176297 0.293795 175 146 116
0.064479 0.175572 0.293003 178 149 119
0.065671 0.176956 0.290988 172 141 112
0.063490 0.176228 0.290208 176 145 116
0.063837 0.177085 0.288496 176 145 116
0.062501 0.176884 0.287413 179 148 119
-0.105367 0.090269 0.302983 181 154 124
-0.105667 0.090468 0.302137 176 149 119
-0.105182 0.091234 0.300816 176 150 117
-0.105482 0.091433 0.299967 179 153 120
-0.105783 0.091632 0.299118 176 150 117
-0.106083 0.091832 0.298269 174 148 115
-0.106384 0.092031 0.297421 176 150 117
-0.106684 0.092230 0.296572 174 148 115
-0.107762 0.091857 0.296217 176 147 115
-0.108062 0.092056 0.295371 180 149 118
-0.114592 0.090948 0.290379 180 156 122
-0.115652 0.090564 0.290076 178 153 122
-0.115945 0.090758 0.289248 178 153 122
-0.117002 0.090371 0.288954 177 154 122
-0.118057 0.089983 0.288665 176 153 121
-0.118347 0.090176 0.287844 175 152 118
-0.118638 0.090369 0.287022 175 151 117
-0.118929 0.090562 0.286201 171 145 110
-0.119220 0.090754 0.285379 173 144 110
0.063347 0.266580 0.066433 176 148 111
0.062050 0.266352 0.065463 176 148 111
-0.086514 0.069811 0.378464 169 142 113
-0.087683 0.069495 0.377850 169 142 113
-0.087095 0.070196 0.376821 162 135 105
-0.087386 0.070389 0.375999 172 145 116
-0.087677 0.070582 0.375178 173 146 117
-0.087968 0.070775 0.374356 168 141 111
-0.088259 0.070967 0.373535 171 144 114
-0.089421 0.070648 0.372939 171 144 114
-0.089711 0.070840 0.372121 171 144 114
-0.089131 0.071546 0.371070 174 147 118
-0.089422 0.071739 0.370248 167 140 111
0.063866 0.176148 0.295133 175 144 115
0.063373 0.176476 0.293738 176 145 116
0.062879 0.176803 0.292344 175 144 115
0.062385 0.177130 0.290949 172 141 112
0.062732 0.177990 0.289241 180 146 118
0.062238 0.178318 0.287843 178 147 118
-0.107023 0.092130 0.299014 177 151 118
-0.107622 0.092527 0.297323 179 150 116
-0.107922 0.092726 0.296477 177 147 113
-0.114748 0.091801 0.290635 183 159 125
-0.115808 0.091414 0.290330 184 159 128
-0.119263 0.090434 0.288635 182 159 125
-0.119553 0.090626 0.287816 185 161 125
-0.119843 0.090818 0.286998 179 155 119
0.063036 0.268274 0.066941 176 148 111
0.061741 0.268042 0.065969 173 147 110
-0.087837 0.070336 0.378102 163 136 107
-0.087250 0.071040 0.377073 169 142 113
-0.087541 0.071232 0.376252 169 142 113
-0.088122 0.071618 0.374609 171 144 114
-0.089575 0.071488 0.373191 170 143 113
-0.089865 0.071680 0.372372 171 144 114
-0.118075 0.091477 0.289992 186 161 130
-0.119127 0.091082 0.289705 183 160 128
-0.119417 0.091274 0.288886 182 159 127
-0.120467 0.090877 0.288608 182 159 125
-0.119997 0.091658 0.287249 183 159 125
0.062142 0.270354 0.065799 174 148 111
0.577684 0.325552 0.554828 148 128 95
0.577709 0.326631 0.552215 143 123 90
0.059787 0.137542 0.393293 160 133 103
0.059337 0.137841 0.392020 155 128 98
0.058886 0.138140 0.390747 159 132 102
0.058435 0.138439 0.389473 161 134 104
0.056754 0.135210 0.399196 161 134 104
0.057227 0.135995 0.397851 160 133 103
0.056780 0.136291 0.396590 159 132 102
0.058166 0.137569 0.395144 160 133 104
0.058633 0.138358 0.393781 156 129 99
0.059097 0.139148 0.392411 156 129 99
0.058646 0.139447 0.391138 160 133 103
0.058196 0.139746 0.389865 161 134 104
0.057745 0.140045 0.388592 161 136 105
0.056517 0.136502 0.399583 158 131 101
0.056989 0.137290 0.398239 159 132 102
0.056543 0.137586 0.396978 158 131 102
0.057012 0.138376 0.395625 161 134 105
0.058394 0.139662 0.394171 158 131 101
0.058857 0.140456 0.392803 159 132 102
0.058407 0.140754 0.391530 162 135 105
0.057045 0.140556 0.390361 162 135 106
0.056595 0.140854 0.389091 162 137 107
0.260141 0.278974 0.299848 170 143 113
-0.068137 0.128859 0.267070 183 157 124
-0.007639 0.205466 0.154058 176 148 109
-0.008832 0.205155 0.153368 176 151 111
0.056725 0.137498 0.401228 158 131 101
0.056280 0.137793 0.399970 157 130 100
0.055835 0.138089 0.398712 158 131 102
0.055389 0.138384 0.397454 159 132 103
0.056774 0.139674 0.396014 162 135 106
0.057240 0.140468 0.394656 155 128 98
0.056792 0.140766 0.393389 161 134 105
0.056343 0.141063 0.392122 163 136 107
0.054984 0.140860 0.390958 160 133 104
0.054537 0.141157 0.389694 163 138 108
0.053181 0.140952 0.388539 165 140 110
0.258884 0.280528 0.300670 168 142 109
0.258170 0.281001 0.298651 167 141 108
0.257455 0.281475 0.296632 166 140 107
0.257614 0.282474 0.294404 172 145 115
0.256898 0.282949 0.292382 170 143 113
-0.067970 0.129658 0.268390 183 156 126
-0.069097 0.129302 0.267881 183 154 124
-0.069453 0.129538 0.266874 186 157 127
-0.069810 0.129775 0.265868 184 158 125
-0.007419 0.206519 0.155798 177 149 110
-0.008612 0.206207 0.155104 178 150 111
-0.009802 0.205892 0.154416 178 150 111
-0.010991 0.205577 0.153734 178 150 111
-0.011459 0.205887 0.152412 177 149 112
0.053765 0.138383 0.399267 155 128 98
0.054237 0.139176 0.397928 158 131 101
0.051964 0.138470 0.396853 160 133 103
0.050608 0.138262 0.395697 158 131 101
0.050167 0.138555 0.394452 165 138 108
0.054282 0.141359 0.392710 161 134 104
0.051106 0.140146 0.391755 165 138 108
0.048844 0.139432 0.390714 166 139 109
0.048403 0.139724 0.389468 165 138 109
0.258342 0.281601 0.303506 166 139 109
0.258504 0.282600 0.301291 165 138 108
0.257790 0.283074 0.299272 165 138 108
0.257075 0.283548 0.297253 169 140 110
0.257233 0.284550 0.295026 170 141 111
0.256517 0.285024 0.293004 172 143 113
-0.068930 0.130099 0.269197 179 153 120
-0.069287 0.130335 0.268190 182 156 123
-0.070411 0.129975 0.267686 182 155 125
-0.071534 0.129612 0.267188 184 157 127
-0.071888 0.129847 0.266188 184 158 125
-0.008392 0.207258 0.156840 181 153 116
-0.008862 0.207570 0.155512 178 150 113
-0.010052 0.207252 0.154823 178 150 113
-0.011240 0.206933 0.154140 181 153 114
-0.011708 0.207244 0.152819 175 147 108
0.044418 0.135725 0.397951 158 131 101
0.046723 0.137525 0.396449 160 133 103
0.046286 0.137814 0.395216 158 131 101
0.041296 0.135576 0.394473 161 134 104
0.039955 0.135356 0.393356 165 138 108
0.037280 0.134911 0.391139 162 135 106
0.035945 0.134687 0.390040 160 133 104
0.258124 0.284673 0.301912 165 138 108
0.257410 0.285147 0.299893 166 139 109
0.256695 0.285621 0.297874 169 142 112
0.256852 0.286626 0.295648 172 143 113
0.256137 0.287100 0.293626 171 142 112
0.254551 0.287042 0.291818 168 141 111
-0.070245 0.130769 0.268998 183 157 124
-0.073256 0.129438 0.268505 183 156 126
-0.074374 0.129069 0.268018 183 157 124
-0.008641 0.208621 0.157249 185 157 120
-0.009111 0.208933 0.155921 176 148 111
-0.010301 0.208612 0.155231 181 153 116
-0.010770 0.208923 0.153906 178 150 111
-0.012424 0.208911 0.151904 176 148 109
0.044331 0.131327 0.412073 154 127 97
0.043902 0.131611 0.410864 157 130 101
0.044397 0.132395 0.409593 158 131 102
0.043539 0.132964 0.407168 157 132 102
0.043109 0.133249 0.405956 153 128 98
0.042680 0.133534 0.404743 160 135 105
0.041333 0.133314 0.403607 156 131 101
0.040905 0.133598 0.402397 160 133 103
0.038707 0.133943 0.398857 159 132 102
0.038280 0.134227 0.397650 158 131 101
0.037853 0.134510 0.396444 160 133 103
0.036516 0.134284 0.395334 165 138 108
0.036090 0.134567 0.394131 162 135 105
0.034756 0.134339 0.393031 161 134 104
0.033424 0.134110 0.391937 159 132 103
0.032095 0.133880 0.390849 164 137 108
0.030346 0.133927 0.388576 159 132 103
0.256315 0.287694 0.298495 168 141 111
0.256472 0.288702 0.296270 168 141 111
0.246182 0.283292 0.296552 170 141 111
0.254171 0.289115 0.292439 169 142 112
-0.074976 0.129251 0.269818 184 158 125
-0.076091 0.128878 0.269336 184 158 125
-0.076440 0.129109 0.268351 184 158 125
-0.077551 0.128734 0.267878 186 160 127
-0.077899 0.128965 0.266896 185 159 126
0.474341 0.599077 -0.179584 173 141 103
0.470961 0.597982 -0.181126 182 150 112
0.468329 0.597503 -0.183226 179 149 113
0.464961 0.596400 -0.184735 183 155 118
-0.010082 0.209662 0.156963 181 155 118
-0.010550 0.209973 0.155638 180 154 117
-0.011019 0.210283 0.154314 181 153 114
0.044959 0.132001 0.414865 159 132 102
0.044531 0.132285 0.413655 154 127 97
0.043178 0.132067 0.412499 153 126 96
0.042751 0.132351 0.411293 158 131 102
0.042324 0.132634 0.410086 155 128 99
0.043310 0.134209 0.407541 154 129 99
0.042881 0.134494 0.406329 154 129 99
0.041534 0.134272 0.405188 155 130 99
0.041106 0.134556 0.403979 152 127 96
0.039762 0.134333 0.402847 158 131 101
0.038420 0.134108 0.401722 156 129 99
0.037994 0.134390 0.400519 158 131 102
0.036655 0.134163 0.399402 161 134 105
0.036230 0.134445 0.398202 160 133 103
0.035805 0.134726 0.397001 161 134 104
0.034471 0.134496 0.395897 160 133 103
0.034047 0.134777 0.394700 163 136 106
0.032716 0.134545 0.393605 160 133 103
0.031386 0.134312 0.392516 161 134 105
0.030060 0.134077 0.391433 164 137 108
0.029639 0.134356 0.390245 156 131 101
0.028315 0.134118 0.389171 159 132 103
0.028798 0.134913 0.387868 159 132 103
0.246875 0.282396 0.305511 168 141 111
-0.076276 0.129889 0.269639 182 156 123
-0.076625 0.130121 0.268654 184 158 125
-0.077736 0.129743 0.268180 185 159 126
-0.078084 0.129973 0.267198 186 160 127
0.473727 0.602426 -0.178581 171 141 105
0.471090 0.601945 -0.180698 178 148 112
0.467718 0.600837 -0.182228 182 154 117
0.466568 0.601599 -0.185474 178 150 113
0.466895 0.603612 -0.189884 183 155 118
0.472374 0.610012 -0.198396 182 154 117
0.481512 0.619560 -0.209901 182 154 117
0.488417 0.627245 -0.219719 186 158 121
-0.010331 0.211022 0.157371 184 158 121
-0.011518 0.210694 0.156682 185 159 122
-0.011986 0.211004 0.155360 177 152 112
-0.012454 0.211315 0.154038 179 151 112
0.044732 0.133243 0.415237 157 130 100
0.044303 0.133527 0.414027 156 129 99
0.042951 0.133306 0.412870 155 128 98
0.042524 0.133589 0.411664 158 131 101
0.042097 0.133872 0.410457 154 127 98
0.042591 0.134663 0.409189 157 130 101
0.043082 0.135454 0.407914 158 131 102
0.042653 0.135739 0.406702 153 126 97
0.042224 0.136023 0.405489 157 130 100
0.040878 0.135798 0.404351 154 127 97
0.039535 0.135571 0.403218 156 131 100
0.038193 0.135343 0.402092 157 132 101
0.037767 0.135626 0.400889 157 132 102
0.036429 0.135395 0.399772 158 133 103
0.035093 0.135164 0.398660 161 134 105
0.033759 0.134931 0.397555 161 134 104
0.032427 0.134696 0.396457 162 135 105
0.031098 0.134460 0.395364 165 138 108
0.030677 0.134739 0.394175 161 134 104
0.028445 0.133984 0.393196 163 138 108
0.027122 0.133744 0.392121 161 136 106
0.026704 0.134020 0.390942 157 132 102
0.027190 0.134816 0.389649 158 131 102
-0.077573 0.130520 0.269465 185 159 126
-0.077921 0.130751 0.268483 183 157 124
-0.078269 0.130981 0.267500 188 162 129
0.473113 0.605775 -0.177577 177 148 114
0.470477 0.605288 -0.179696 179 151 114
0.467846 0.604797 -0.181803 184 156 119
0.468911 0.607444 -0.186785 180 152 115
0.470706 0.610723 -0.192366 181 153 116
0.474701 0.615897 -0.199722 179 151 114
0.483092 0.624861 -0.210639 182 154 117
0.485583 0.628797 -0.216918 183 155 118
0.483666 0.628951 -0.219672 183 155 118
-0.011767 0.212051 0.157088 182 156 119
-0.012235 0.212361 0.155767 180 155 115
-0.012703 0.212672 0.154445 179 154 114
0.044504 0.134485 0.415609 153 126 96
0.043151 0.134262 0.414448 156 129 99
0.042724 0.134545 0.413242 158 131 101
0.042297 0.134828 0.412035 154 127 97
0.041870 0.135111 0.410829 153 126 97
0.042363 0.135904 0.409561 156 129 100
0.042854 0.136699 0.408287 158 131 102
0.042425 0.136984 0.407075 154 127 98
0.041996 0.137268 0.405862 156 129 99
0.040650 0.137040 0.404723 158 131 101
0.040222 0.137324 0.403513 157 132 101
