ply
format ascii 1.0
element vertex 1287
property float x
property float y
property float z
property uchar red
property uchar green
property uchar blue
end_header
-0.047037 -0.259002 0.690000 2 11 16
-0.042190 -0.257125 0.685000 2 11 16
-0.037465 -0.255623 0.681000 2 12 14
-0.032695 -0.253371 0.675000 1 11 13
-0.028129 -0.252245 0.672000 0 11 13
-0.023603 -0.251119 0.669000 1 11 13
-0.019117 -0.249993 0.666000 0 11 15
-0.014692 -0.249242 0.664000 2 13 17
-0.010325 -0.249242 0.664000 2 13 17
-0.005948 -0.248867 0.663000 2 13 17
-0.001588 -0.248867 0.663000 2 13 15
0.002765 -0.248116 0.661000 3 14 16
0.007080 -0.246990 0.658000 3 14 16
0.011356 -0.245864 0.655000 3 14 16
0.015569 -0.244362 0.651000 3 14 16
0.019759 -0.243236 0.648000 2 15 21
0.023836 -0.241360 0.643000 3 17 26
0.027891 -0.239858 0.639000 4 18 27
0.031792 -0.237606 0.633000 3 21 31
0.035729 -0.236104 0.629000 4 22 32
0.039612 -0.234603 0.625000 4 22 32
0.043583 -0.233852 0.623000 5 23 33
0.047451 -0.232726 0.620000 6 22 35
0.051280 -0.231600 0.617000 5 21 34
0.055069 -0.230474 0.614000 6 22 35
0.058723 -0.228972 0.610000 6 22 35
0.062426 -0.227846 0.607000 5 23 35
0.066200 -0.227096 0.605000 6 26 37
0.070063 -0.226720 0.604000 7 26 40
0.073668 -0.225594 0.601000 7 26 40
0.077363 -0.224843 0.599000 8 27 41
0.080896 -0.223717 0.596000 8 28 39
0.084531 -0.222967 0.594000 7 27 38
0.087992 -0.221841 0.591000 7 27 38
0.091724 -0.221465 0.590000 6 28 39
0.095442 -0.221090 0.589000 6 28 39
0.098979 -0.220339 0.587000 8 30 41
0.102490 -0.219588 0.585000 9 29 40
0.105792 -0.218462 0.582000 7 29 40
0.108867 -0.216961 0.578000 7 29 42
0.111889 -0.215459 0.574000 8 30 43
0.115261 -0.214709 0.572000 8 30 43
0.118191 -0.213207 0.568000 7 29 42
0.121498 -0.212456 0.566000 8 30 43
0.124778 -0.211706 0.564000 9 31 44
0.127804 -0.210580 0.561000 8 30 43
0.131026 -0.209829 0.559000 9 31 44
0.133979 -0.208703 0.556000 8 30 43
0.137141 -0.207952 0.554000 8 30 43
0.140023 -0.206826 0.551000 8 30 43
0.143126 -0.206075 0.549000 7 29 42
0.146202 -0.205325 0.547000 7 29 42
0.148705 -0.203823 0.543000 9 28 42
0.151435 -0.202697 0.540000 9 28 42
0.154126 -0.201571 0.537000 9 28 42
0.157070 -0.200820 0.535000 10 29 43
0.159989 -0.200069 0.533000 10 29 43
0.162881 -0.199319 0.531000 10 29 43
0.165747 -0.198568 0.529000 11 30 44
0.168907 -0.198193 0.528000 7 33 56
0.172053 -0.197817 0.527000 68 127 157
0.175187 -0.197442 0.526000 73 120 150
0.178307 -0.197066 0.525000 52 76 102
0.181414 -0.196691 0.524000 6 34 58
0.184507 -0.196316 0.523000 27 65 88
0.187229 -0.195565 0.521000 10 31 52
0.190289 -0.195190 0.520000 7 29 42
0.192592 -0.194064 0.517000 9 28 42
0.195235 -0.193313 0.515000 9 29 40
0.197851 -0.192562 0.513000 8 28 39
0.200048 -0.191436 0.510000 9 29 40
0.202206 -0.190310 0.507000 9 29 40
0.204325 -0.189184 0.504000 8 28 39
0.206816 -0.188433 0.502000 7 27 38
0.208443 -0.186932 0.498000 8 28 39
0.210869 -0.186181 0.496000 10 30 41
0.213268 -0.185430 0.494000 10 29 43
0.215202 -0.184304 0.491000 10 29 43
0.217542 -0.183553 0.489000 10 29 43
0.219855 -0.182803 0.487000 9 28 42
0.222142 -0.182052 0.485000 10 29 43
0.224403 -0.181301 0.483000 10 29 44
0.227580 -0.181301 0.483000 10 29 44
0.230279 -0.180926 0.482000 10 29 43
0.233449 -0.180926 0.482000 10 28 42
0.236129 -0.180550 0.481000 11 29 43
0.238795 -0.180175 0.480000 10 29 43
0.241448 -0.179800 0.479000 9 28 42
0.243578 -0.179049 0.477000 8 30 43
0.245681 -0.178298 0.475000 8 30 43
-0.501102 -0.349605 0.948000 52 173 220
-0.496955 -0.351081 0.952000 50 175 223
-0.491724 -0.351818 0.954000 54 180 231
-0.485449 -0.351818 0.954000 57 181 235
-0.474654 -0.348499 0.945000 46 176 228
-0.461003 -0.342967 0.930000 67 159 206
-0.451462 -0.340386 0.923000 16 49 80
-0.431879 -0.330060 0.895000 40 91 120
-0.425041 -0.329322 0.893000 35 82 112
-0.416351 -0.327110 0.887000 33 78 107
-0.410054 -0.326741 0.886000 33 74 102
-0.403314 -0.326003 0.884000 33 68 96
-0.398399 -0.326741 0.886000 30 66 92
-0.392571 -0.326741 0.886000 27 61 86
-0.387616 -0.327479 0.888000 28 60 83
-0.382205 -0.327847 0.889000 25 56 76
-0.377205 -0.328585 0.891000 25 53 74
-0.371761 -0.328954 0.892000 22 50 71
-0.367125 -0.330060 0.895000 23 50 69
-0.362045 -0.330798 0.897000 21 47 64
-0.357733 -0.332273 0.901000 19 45 62
-0.353369 -0.333748 0.905000 18 44 61
-0.349720 -0.335961 0.911000 16 42 57
-0.344482 -0.336698 0.913000 13 39 52
-0.339218 -0.337436 0.915000 16 40 52
-0.332472 -0.336698 0.913000 16 39 53
-0.325751 -0.335961 0.911000 14 37 51
-0.319759 -0.335961 0.911000 13 36 50
-0.313767 -0.335961 0.911000 13 36 50
-0.308113 -0.336329 0.912000 14 36 50
-0.302115 -0.336329 0.912000 13 35 49
-0.296116 -0.336329 0.912000 14 36 50
-0.290435 -0.336698 0.913000 13 35 49
-0.178550 -0.230858 0.626000 10 32 45
-0.173597 -0.229751 0.623000 9 31 44
-0.169771 -0.230120 0.624000 7 29 43
-0.165667 -0.230120 0.624000 9 28 42
-0.161821 -0.230489 0.625000 4 23 37
-0.157711 -0.230489 0.625000 3 21 31
-0.153600 -0.230489 0.625000 5 18 24
-0.149489 -0.230489 0.625000 3 14 18
-0.146076 -0.231595 0.628000 1 12 14
-0.142397 -0.232333 0.630000 1 9 11
-0.139131 -0.233808 0.634000 0 8 7
-0.135387 -0.234545 0.636000 0 9 8
-0.131204 -0.234545 0.636000 0 10 11
-0.125822 -0.232333 0.630000 0 8 7
-0.120326 -0.229751 0.623000 1 11 13
-0.113803 -0.224957 0.610000 15 32 40
-0.108891 -0.223113 0.605000 1 18 25
-0.104391 -0.222007 0.602000 2 13 15
-0.100265 -0.221638 0.601000 16 35 49
-0.096312 -0.221638 0.601000 1 15 18
-0.092513 -0.222007 0.602000 3 14 18
-0.088847 -0.222744 0.604000 16 35 49
-0.085155 -0.223482 0.606000 4 15 21
-0.081705 -0.224957 0.610000 4 15 19
-0.080113 -0.231964 0.629000 4 15 19
-0.078392 -0.239340 0.649000 23 41 53
-0.077778 -0.251141 0.681000 22 43 62
-0.074267 -0.254460 0.690000 20 43 61
-0.070234 -0.256304 0.695000 20 43 61
-0.065663 -0.256304 0.695000 19 42 60
-0.061179 -0.256672 0.696000 0 16 26
-0.056520 -0.256304 0.695000 3 14 18
-0.051724 -0.255197 0.692000 2 13 17
-0.046832 -0.253353 0.687000 1 12 16
-0.042005 -0.251509 0.682000 1 12 16
-0.037300 -0.250034 0.678000 2 12 14
-0.032549 -0.247822 0.672000 1 11 13
-0.028004 -0.246715 0.669000 1 12 16
-0.023498 -0.245609 0.666000 2 13 17
-0.019088 -0.245240 0.665000 2 13 17
-0.014670 -0.244503 0.663000 2 13 17
-0.010309 -0.244503 0.663000 2 13 17
-0.005931 -0.243765 0.661000 2 13 17
-0.001580 -0.243396 0.660000 3 14 18
0.002744 -0.241921 0.656000 4 15 19
0.006994 -0.239708 0.650000 3 14 18
0.011252 -0.239340 0.649000 4 15 19
0.015449 -0.238233 0.646000 4 15 19
0.019637 -0.237496 0.644000 3 16 22
0.023725 -0.236021 0.640000 2 19 27
0.027803 -0.234914 0.637000 3 20 28
0.031742 -0.233070 0.632000 4 21 31
0.035785 -0.232333 0.630000 4 21 31
0.039612 -0.230489 0.625000 6 22 35
0.043583 -0.229751 0.623000 6 23 33
0.047451 -0.228645 0.620000 8 24 37
0.051363 -0.227907 0.618000 7 23 36
0.055159 -0.226801 0.615000 6 22 35
0.058819 -0.225326 0.611000 7 23 36
0.062529 -0.224220 0.608000 7 23 36
0.066310 -0.223482 0.606000 7 23 36
0.070179 -0.223113 0.605000 5 25 36
0.073791 -0.222007 0.602000 8 27 41
0.077492 -0.221269 0.600000 7 27 38
0.081167 -0.220532 0.598000 7 27 38
0.084816 -0.219794 0.596000 7 27 38
0.088438 -0.219057 0.594000 7 27 38
0.091879 -0.217950 0.591000 7 29 42
0.095442 -0.217213 0.589000 7 29 42
0.098979 -0.216475 0.587000 8 30 43
0.102665 -0.216106 0.586000 10 29 43
0.105974 -0.215000 0.583000 8 30 43
0.109432 -0.214262 0.581000 8 30 43
0.112279 -0.212419 0.576000 8 30 43
0.115463 -0.211312 0.573000 8 30 43
0.118399 -0.209837 0.569000 8 30 43
0.121712 -0.209099 0.567000 8 30 43
0.124778 -0.207993 0.564000 9 31 44
0.127804 -0.206887 0.561000 8 30 43
0.131026 -0.206149 0.559000 8 30 43
0.133979 -0.205043 0.556000 9 31 44
0.137141 -0.204305 0.554000 8 30 43
0.140023 -0.203199 0.551000 8 30 43
0.143126 -0.202461 0.549000 8 30 43
0.146202 -0.201724 0.547000 7 29 42
0.148978 -0.200617 0.544000 10 29 43
0.151996 -0.199880 0.542000 9 28 42
0.154413 -0.198405 0.538000 9 28 42
0.157364 -0.197667 0.536000 9 28 42
0.160289 -0.196930 0.534000 10 30 41
0.163495 -0.196561 0.533000 9 29 40
0.166374 -0.195823 0.531000 13 32 46
0.169227 -0.195086 0.529000 73 115 137
0.172706 -0.195086 0.529000 67 127 163
0.175520 -0.194348 0.527000 61 116 147
0.178646 -0.193979 0.526000 73 117 146
0.181414 -0.193242 0.524000 75 114 145
0.184155 -0.192504 0.522000 63 110 138
0.186869 -0.191767 0.520000 12 30 54
0.189924 -0.191398 0.519000 8 30 43
0.192592 -0.190660 0.517000 10 29 43
0.195235 -0.189923 0.515000 9 29 40
0.197851 -0.189185 0.513000 8 28 39
0.200048 -0.188079 0.510000 10 28 40
0.202605 -0.187341 0.508000 8 28 39
0.205135 -0.186604 0.506000 8 28 39
0.207640 -0.185866 0.504000 7 27 38
0.209280 -0.184391 0.500000 10 28 40
0.211294 -0.183285 0.497000 10 28 40
0.213699 -0.182547 0.495000 9 28 42
0.215640 -0.181441 0.492000 10 29 44
0.217987 -0.180703 0.490000 10 29 43
0.219855 -0.179597 0.487000 10 30 41
0.222142 -0.178859 0.485000 10 30 41
0.224868 -0.178491 0.484000 10 29 43
0.227580 -0.178122 0.483000 10 29 43
0.230757 -0.178122 0.483000 10 28 42
0.233449 -0.177753 0.482000 10 28 40
0.236620 -0.177753 0.482000 11 29 41
0.239293 -0.177384 0.481000 10 28 40
0.241448 -0.176647 0.479000 10 28 40
0.244088 -0.176278 0.478000 9 28 42
0.246198 -0.175540 0.476000 9 28 42
-0.501102 -0.343365 0.948000 60 171 214
-0.500087 -0.346987 0.958000 58 173 218
-0.494817 -0.347712 0.960000 57 175 225
-0.488502 -0.347712 0.960000 61 182 229
-0.482188 -0.347712 0.960000 59 175 226
-0.468934 -0.342641 0.946000 44 157 199
-0.456353 -0.337932 0.933000 7 44 71
-0.436705 -0.327791 0.905000 49 93 120
-0.426945 -0.324893 0.897000 31 81 108
-0.417289 -0.321995 0.889000 33 77 106
-0.410517 -0.321271 0.887000 33 70 99
-0.404226 -0.320909 0.886000 33 69 95
-0.398399 -0.320909 0.886000 32 66 91
-0.392571 -0.320909 0.886000 28 63 85
-0.387180 -0.321271 0.887000 27 59 80
-0.381776 -0.321633 0.888000 27 58 79
-0.376358 -0.321995 0.889000 23 54 74
-0.371344 -0.322720 0.891000 20 51 71
-0.365894 -0.323082 0.892000 20 51 71
-0.360431 -0.323444 0.893000 19 48 64
-0.356145 -0.324893 0.897000 19 46 63
-0.352588 -0.327066 0.903000 18 46 60
-0.348568 -0.328877 0.908000 18 46 60
-0.344482 -0.330688 0.913000 17 43 58
-0.340331 -0.332499 0.918000 14 40 53
-0.335021 -0.333224 0.920000 16 39 53
-0.328612 -0.332861 0.919000 15 38 52
-0.322216 -0.332499 0.918000 13 36 50
-0.316178 -0.332499 0.918000 13 36 50
-0.310140 -0.332499 0.918000 14 36 50
-0.303440 -0.331775 0.916000 15 37 51
-0.297415 -0.331775 0.916000 14 35 52
-0.173597 -0.225650 0.623000 10 34 46
-0.169771 -0.226013 0.624000 9 31 45
-0.165667 -0.226013 0.624000 7 29 43
-0.161821 -0.226375 0.625000 2 24 37
-0.157711 -0.226375 0.625000 5 23 33
-0.153600 -0.226375 0.625000 4 17 23
-0.149489 -0.226375 0.625000 3 14 18
-0.145843 -0.227099 0.627000 2 13 17
-0.142397 -0.228186 0.630000 0 10 11
-0.138912 -0.229272 0.633000 0 8 7
-0.135174 -0.229997 0.635000 1 7 7
-0.131204 -0.230359 0.636000 5 11 11
-0.126221 -0.228910 0.632000 0 8 10
-0.120906 -0.226737 0.626000 0 10 12
-0.114736 -0.222753 0.615000 11 30 37
-0.109431 -0.220217 0.608000 2 19 26
-0.104738 -0.218769 0.604000 4 14 16
-0.100599 -0.218406 0.603000 16 34 48
-0.096793 -0.218769 0.604000 0 14 17
-0.092974 -0.219131 0.605000 3 14 18
-0.089436 -0.220217 0.608000 12 32 43
-0.085858 -0.221304 0.611000 3 14 18
-0.082375 -0.222753 0.615000 2 13 17
-0.080240 -0.228186 0.630000 3 14 18
-0.077908 -0.233619 0.645000 20 37 47
-0.077092 -0.244485 0.675000 21 42 59
-0.073944 -0.248831 0.687000 19 42 60
-0.069830 -0.250280 0.691000 19 42 60
-0.065285 -0.250280 0.691000 21 42 59
-0.060740 -0.250280 0.691000 1 17 30
-0.056195 -0.250280 0.691000 1 12 18
-0.051500 -0.249555 0.689000 2 13 17
-0.046628 -0.247744 0.684000 3 13 15
-0.041882 -0.246296 0.680000 4 13 18
-0.037134 -0.244485 0.675000 3 14 20
-0.032404 -0.242312 0.669000 2 12 14
-0.027878 -0.241225 0.666000 4 12 15
-0.023427 -0.240501 0.664000 1 14 20
-0.019031 -0.240138 0.663000 3 14 20
-0.014648 -0.239776 0.662000 0 14 15
-0.010263 -0.239052 0.660000 3 13 15
-0.005859 -0.236516 0.653000 3 14 16
-0.001554 -0.235068 0.649000 3 14 18
0.002706 -0.234343 0.647000 4 15 19
0.006919 -0.232894 0.643000 3 14 18
0.011148 -0.232894 0.643000 3 14 18
0.015330 -0.232170 0.641000 1 15 18
0.019546 -0.232170 0.641000 3 16 24
0.023651 -0.231083 0.638000 4 21 29
0.027760 -0.230359 0.636000 2 21 28
0.031792 -0.229272 0.633000 4 21 31
0.035842 -0.228548 0.631000 8 22 33
0.039676 -0.226737 0.626000 7 24 34
0.043653 -0.226013 0.624000 7 24 34
0.047528 -0.224926 0.621000 7 24 34
0.051446 -0.224202 0.619000 8 22 35
0.055249 -0.223115 0.616000 8 21 37
0.058915 -0.221666 0.612000 8 24 39
0.062735 -0.220942 0.610000 6 22 37
0.066528 -0.220217 0.608000 5 23 37
0.070295 -0.219493 0.606000 7 25 37
0.074036 -0.218769 0.604000 9 27 39
0.077751 -0.218044 0.602000 6 26 37
0.081303 -0.216958 0.599000 7 27 38
0.084816 -0.215871 0.596000 6 28 39
0.088438 -0.215147 0.594000 6 28 39
0.091879 -0.214060 0.591000 5 27 40
0.095442 -0.213336 0.589000 8 30 43
0.098810 -0.212249 0.586000 10 29 43
0.102490 -0.211887 0.585000 11 30 44
0.105974 -0.211162 0.583000 7 30 44
0.109432 -0.210438 0.581000 8 30 43
0.112474 -0.208989 0.577000 8 30 41
0.115664 -0.207903 0.574000 8 30 43
0.118607 -0.206454 0.570000 8 30 43
0.121927 -0.205729 0.568000 9 31 44
0.124999 -0.204643 0.565000 9 31 44
0.128032 -0.203556 0.562000 8 30 43
0.131026 -0.202470 0.559000 8 30 43
0.133979 -0.201383 0.556000 8 30 44
0.137141 -0.200659 0.554000 10 29 44
0.140277 -0.199934 0.552000 9 31 45
0.143647 -0.199572 0.551000 10 29 44
0.146737 -0.198848 0.549000 7 29 43
0.149800 -0.198123 0.547000 8 30 43
0.152557 -0.197037 0.544000 9 28 42
0.154987 -0.195588 0.540000 7 29 40
0.158245 -0.195226 0.539000 11 29 43
0.160890 -0.194139 0.536000 11 31 42
0.164108 -0.193777 0.535000 9 29 40
0.167001 -0.193052 0.533000 12 31 45
0.169867 -0.192328 0.531000 12 39 60
0.172706 -0.191604 0.529000 63 108 131
0.175520 -0.190879 0.527000 14 49 71
0.178307 -0.190155 0.525000 15 43 64
0.181414 -0.189793 0.524000 21 48 69
0.184155 -0.189068 0.522000 19 44 66
0.186869 -0.188344 0.520000 10 29 44
0.189558 -0.187619 0.518000 8 30 43
0.192220 -0.186895 0.516000 8 27 41
0.194855 -0.186171 0.514000 10 28 40
0.197465 -0.185446 0.512000 7 27 38
0.200048 -0.184722 0.510000 9 29 40
0.202605 -0.183997 0.508000 8 28 39
0.205135 -0.183273 0.506000 6 28 39
0.207640 -0.182549 0.504000 8 28 39
0.209699 -0.181462 0.501000 9 27 39
0.212144 -0.180738 0.499000 12 26 39
0.214131 -0.179651 0.496000 10 28 40
0.216078 -0.178564 0.493000 10 29 43
0.218431 -0.177840 0.491000 11 29 41
0.220758 -0.177116 0.489000 10 29 43
0.223058 -0.176391 0.487000 9 28 42
0.225797 -0.176029 0.486000 10 28 40
0.228522 -0.175667 0.485000 8 27 41
0.231235 -0.175305 0.484000 9 28 42
0.234418 -0.175305 0.484000 9 27 39
0.237111 -0.174942 0.483000 11 27 40
0.239790 -0.174580 0.482000 11 27 40
0.242456 -0.174218 0.481000 8 26 38
0.244599 -0.173494 0.479000 10 28 40
0.246715 -0.172769 0.477000 9 28 42
-0.497931 -0.334991 0.942000 67 138 184
-0.499565 -0.340325 0.957000 70 169 211
-0.494817 -0.341392 0.960000 61 176 220
-0.489011 -0.341748 0.961000 68 179 225
-0.483695 -0.342459 0.963000 62 181 224
-0.472899 -0.339259 0.954000 60 165 213
-0.459777 -0.334280 0.940000 10 39 71
-0.440083 -0.324323 0.912000 50 86 112
-0.430276 -0.321478 0.904000 35 80 109
-0.419167 -0.317566 0.893000 34 75 103
-0.412831 -0.317210 0.892000 33 70 97
-0.405595 -0.316143 0.889000 33 69 93
-0.399298 -0.315788 0.888000 30 65 87
-0.393457 -0.315788 0.888000 30 65 87
-0.387616 -0.315788 0.888000 29 61 82
-0.382205 -0.316143 0.889000 26 58 79
-0.376358 -0.316143 0.889000 24 55 75
-0.371761 -0.317210 0.892000 21 52 72
-0.365894 -0.317210 0.892000 22 50 71
-0.360431 -0.317566 0.893000 20 49 65
-0.355748 -0.318633 0.896000 20 47 64
-0.351417 -0.320055 0.900000 17 44 61
-0.347416 -0.321833 0.905000 16 43 60
-0.342973 -0.323256 0.909000 16 44 58
-0.339589 -0.325745 0.916000 16 42 57
-0.334657 -0.326812 0.919000 14 40 55
-0.328970 -0.327168 0.920000 13 39 54
-0.322567 -0.326812 0.919000 12 38 53
-0.316523 -0.326812 0.919000 12 38 51
-0.310478 -0.326812 0.919000 11 37 50
-0.304102 -0.326456 0.918000 12 35 49
-0.298064 -0.326456 0.918000 12 35 51
-0.291390 -0.325745 0.916000 13 36 50
-0.174154 -0.222261 0.625000 11 35 47
-0.170315 -0.222616 0.626000 10 33 47
-0.166463 -0.222972 0.627000 4 26 40
-0.162080 -0.222616 0.626000 3 25 38
-0.157711 -0.222261 0.625000 4 22 32
-0.153600 -0.222261 0.625000 4 19 24
-0.149728 -0.222616 0.626000 4 15 19
-0.146076 -0.223327 0.628000 2 13 15
-0.142397 -0.224039 0.630000 0 10 11
-0.139131 -0.225461 0.634000 0 8 7
-0.135387 -0.226172 0.636000 0 8 7
-0.131410 -0.226528 0.637000 3 12 11
-0.127020 -0.226172 0.636000 0 7 6
-0.122064 -0.224750 0.632000 0 10 11
-0.115855 -0.220838 0.621000 11 26 33
-0.110331 -0.217993 0.613000 4 19 26
-0.105085 -0.215504 0.606000 3 13 15
-0.100766 -0.214793 0.604000 15 33 45
-0.097113 -0.215504 0.606000 0 14 17
-0.093435 -0.216215 0.608000 4 15 19
-0.089877 -0.217282 0.611000 8 26 36
-0.086280 -0.218349 0.614000 3 13 15
-0.082777 -0.219771 0.618000 5 16 20
-0.080113 -0.223683 0.629000 4 15 19
-0.077425 -0.227950 0.641000 19 36 46
-0.076179 -0.237197 0.667000 20 43 61
-0.073406 -0.242531 0.682000 19 42 58
-0.069527 -0.244664 0.688000 19 42 60
-0.065096 -0.245020 0.689000 19 42 60
-0.060652 -0.245376 0.690000 7 29 43
-0.056195 -0.245731 0.691000 0 18 28
-0.051575 -0.245376 0.690000 0 15 25
-0.046832 -0.244309 0.687000 0 14 25
-0.041944 -0.242175 0.681000 3 16 22
-0.037134 -0.240041 0.675000 5 17 17
-0.032307 -0.237197 0.667000 2 14 14
-0.027836 -0.236485 0.665000 0 13 19
-0.023498 -0.236841 0.666000 1 12 16
-0.019117 -0.236841 0.666000 3 12 17
-0.014714 -0.236485 0.665000 1 16 21
-0.010263 -0.234707 0.660000 0 14 23
-0.005832 -0.231151 0.650000 1 14 22
-0.001545 -0.229373 0.645000 2 15 23
0.002681 -0.227950 0.641000 2 15 23
0.006854 -0.226528 0.637000 1 14 23
0.011061 -0.226884 0.638000 1 14 23
0.015258 -0.226884 0.638000 1 18 26
0.019424 -0.226528 0.637000 2 19 29
0.023576 -0.226172 0.636000 4 18 31
0.027672 -0.225461 0.634000 6 19 35
0.031742 -0.224750 0.632000 7 25 39
0.035842 -0.224394 0.631000 5 23 37
0.039739 -0.222972 0.627000 6 25 40
0.043653 -0.221905 0.624000 8 27 42
0.047528 -0.220838 0.621000 9 26 42
0.051446 -0.220127 0.619000 9 26 42
0.055338 -0.219416 0.617000 8 25 41
0.059012 -0.217993 0.613000 9 27 41
0.062838 -0.217282 0.611000 9 27 41
0.066528 -0.216215 0.608000 9 27 41
0.070411 -0.215859 0.607000 9 27 41
0.074159 -0.215148 0.605000 9 27 41
0.077880 -0.214437 0.603000 9 27 41
0.081439 -0.213370 0.600000 10 28 42
0.085101 -0.212659 0.598000 9 27 41
0.088587 -0.211592 0.595000 10 28 40
0.091879 -0.210170 0.591000 8 30 41
0.095280 -0.209103 0.588000 8 30 41
0.098810 -0.208392 0.586000 8 30 43
0.102139 -0.207325 0.583000 9 31 44
0.105792 -0.206969 0.582000 12 30 42
0.109243 -0.206258 0.580000 12 29 45
0.112474 -0.205191 0.577000 9 31 44
0.115664 -0.204124 0.574000 8 31 47
0.119232 -0.203769 0.573000 9 31 45
0.122142 -0.202346 0.569000 9 31 45
0.125221 -0.201279 0.566000 8 30 43
0.128260 -0.200212 0.563000 8 30 43
0.131260 -0.199145 0.560000 11 30 44
0.134220 -0.198079 0.557000 11 30 44
0.137389 -0.197367 0.555000 11 30 44
0.140531 -0.196656 0.553000 10 29 43
0.143908 -0.196301 0.552000 9 29 40
0.147004 -0.195589 0.550000 9 29 40
0.150074 -0.194878 0.548000 9 29 40
0.153117 -0.194167 0.546000 9 29 40
0.155561 -0.192744 0.542000 9 29 40
0.158538 -0.192033 0.540000 7 29 40
0.161190 -0.190966 0.537000 10 29 43
0.164415 -0.190611 0.536000 10 29 43
0.167001 -0.189544 0.533000 14 31 41
0.170186 -0.189188 0.532000 16 36 47
0.173033 -0.188477 0.530000 15 38 52
0.175520 -0.187410 0.527000 13 37 49
0.178646 -0.187055 0.526000 13 35 49
0.181067 -0.185988 0.523000 12 34 48
0.184155 -0.185632 0.522000 12 34 47
0.186869 -0.184921 0.520000 9 31 42
0.189558 -0.184210 0.518000 9 29 40
0.192220 -0.183498 0.516000 9 29 40
0.194855 -0.182787 0.514000 8 28 39
0.197465 -0.182076 0.512000 8 28 39
0.200048 -0.181365 0.510000 9 27 39
0.203004 -0.181009 0.509000 8 28 39
0.205541 -0.180298 0.507000 9 27 39
0.208464 -0.179942 0.506000 9 27 39
0.210536 -0.178875 0.503000 10 26 39
0.212569 -0.177808 0.500000 13 27 40
0.214994 -0.177097 0.498000 10 28 42
0.216517 -0.175675 0.494000 10 29 44
0.218876 -0.174964 0.492000 8 30 44
0.221209 -0.174252 0.490000 9 28 42
0.223516 -0.173541 0.488000 10 28 40
0.226262 -0.173185 0.487000 8 27 41
0.228994 -0.172830 0.486000 9 29 40
0.232190 -0.172830 0.486000 10 28 40
0.234418 -0.172119 0.484000 9 25 38
0.237602 -0.172119 0.484000 10 27 37
0.239790 -0.171407 0.482000 9 27 39
0.242456 -0.171052 0.481000 9 27 39
0.244599 -0.170341 0.479000 9 27 39
0.247232 -0.169985 0.478000 9 27 39
-0.491059 -0.324253 0.929000 86 131 173
-0.498521 -0.333328 0.955000 71 130 172
-0.493786 -0.334375 0.958000 75 160 201
-0.489011 -0.335422 0.961000 71 167 209
-0.484197 -0.336469 0.964000 75 174 213
-0.474882 -0.334375 0.958000 63 170 214
-0.445391 -0.322159 0.923000 30 62 83
-0.431704 -0.316574 0.907000 37 78 106
-0.420106 -0.312386 0.895000 36 73 100
-0.414219 -0.312386 0.895000 32 68 94
-0.406507 -0.310990 0.891000 30 66 90
-0.399747 -0.310292 0.889000 31 66 88
-0.393900 -0.310292 0.889000 28 63 83
-0.388053 -0.310292 0.889000 26 61 81
-0.383495 -0.311339 0.892000 24 57 76
-0.378898 -0.312386 0.895000 24 55 75
-0.373428 -0.312735 0.896000 22 53 73
-0.367945 -0.313084 0.897000 21 49 70
-0.362852 -0.313782 0.899000 19 48 64
-0.357336 -0.314131 0.900000 20 47 64
-0.351807 -0.314480 0.901000 18 45 62
-0.347416 -0.315876 0.905000 17 44 61
-0.342973 -0.317272 0.909000 17 44 61
-0.338477 -0.318668 0.913000 16 44 58
-0.333564 -0.319715 0.916000 12 40 54
-0.328255 -0.320414 0.918000 12 40 54
-0.322216 -0.320414 0.918000 12 38 53
-0.316178 -0.320414 0.918000 13 39 54
-0.310140 -0.320414 0.918000 11 39 51
-0.304102 -0.320414 0.918000 11 39 51
-0.298064 -0.320414 0.918000 12 38 53
-0.292026 -0.320414 0.918000 12 35 51
-0.176105 -0.220590 0.632000 12 35 49
-0.171404 -0.219892 0.630000 12 35 49
-0.166729 -0.219194 0.628000 6 28 41
-0.162339 -0.218845 0.627000 3 25 36
-0.157963 -0.218496 0.626000 3 23 30
-0.154091 -0.218845 0.627000 5 20 25
-0.149967 -0.218845 0.627000 2 16 19
-0.146541 -0.219892 0.630000 3 14 16
-0.142849 -0.220590 0.632000 1 11 12
-0.139351 -0.221637 0.635000 0 9 8
-0.135600 -0.222335 0.637000 0 7 6
-0.131616 -0.222684 0.638000 4 13 12
-0.127420 -0.222684 0.638000 0 7 6
-0.122451 -0.221288 0.634000 1 10 9
-0.116602 -0.218146 0.625000 6 17 21
-0.110871 -0.215005 0.616000 4 15 19
-0.105779 -0.212911 0.610000 2 13 15
-0.101433 -0.212213 0.608000 12 32 41
-0.097754 -0.212911 0.610000 2 13 17
-0.094203 -0.213958 0.613000 8 19 25
-0.090612 -0.215005 0.616000 3 20 28
-0.086842 -0.215703 0.618000 0 11 13
-0.083045 -0.216401 0.620000 7 22 29
-0.079858 -0.218845 0.627000 4 15 17
-0.076701 -0.221637 0.635000 13 30 40
-0.023709 -0.234551 0.672000 5 16 22
-0.017347 -0.273643 0.784000 38 62 72
-0.012253 -0.275039 0.788000 32 62 73
-0.005832 -0.226872 0.650000 26 50 62
-0.001918 -0.279577 0.801000 28 52 62
0.003359 -0.280275 0.803000 28 50 61
0.006833 -0.221637 0.635000 28 52 64
0.015258 -0.222684 0.638000 41 73 88
0.019424 -0.222335 0.637000 48 84 100
0.039739 -0.218845 0.627000 53 91 112
0.043723 -0.218146 0.625000 57 95 116
0.047681 -0.217448 0.623000 60 95 117
0.051529 -0.216401 0.620000 56 92 114
0.055338 -0.215354 0.617000 47 84 103
0.059108 -0.214307 0.614000 41 76 95
0.062941 -0.213609 0.612000 36 69 86
0.066528 -0.212213 0.608000 34 67 84
0.070411 -0.211864 0.607000 20 53 70
0.074159 -0.211166 0.605000 17 50 69
0.078009 -0.210817 0.604000 13 44 64
0.081575 -0.209770 0.601000 11 42 60
0.085101 -0.208723 0.598000 8 39 57
0.088587 -0.207675 0.595000 5 34 50
0.091879 -0.206279 0.591000 6 35 51
0.095280 -0.205232 0.588000 4 31 48
0.098473 -0.203836 0.584000 4 33 49
0.102139 -0.203487 0.583000 4 33 51
0.105610 -0.202789 0.581000 1 30 48
0.109055 -0.202091 0.579000 1 32 53
0.112474 -0.201393 0.577000 10 36 49
0.115866 -0.200695 0.575000 14 33 39
0.119232 -0.199997 0.573000 10 29 36
0.122142 -0.198601 0.569000 12 30 40
0.125221 -0.197553 0.566000 13 31 41
0.128260 -0.196506 0.563000 14 31 39
0.131494 -0.195808 0.561000 14 31 39
0.134702 -0.195110 0.559000 13 30 38
0.138132 -0.194761 0.558000 14 31 39
0.141294 -0.194063 0.556000 12 29 37
0.144690 -0.193714 0.555000 15 30 37
0.147806 -0.193016 0.553000 13 30 37
0.150895 -0.192318 0.551000 13 30 38
0.153678 -0.191271 0.548000 13 30 38
0.156135 -0.189875 0.544000 14 28 39
0.159126 -0.189177 0.542000 10 31 36
0.161490 -0.187780 0.538000 13 30 38
0.164415 -0.187082 0.536000 8 31 39
0.167314 -0.186384 0.534000 10 30 41
0.170506 -0.186035 0.533000 9 29 40
0.173359 -0.185337 0.531000 12 30 42
0.175853 -0.184290 0.528000 14 32 44
0.178986 -0.183941 0.527000 10 28 40
0.181760 -0.183243 0.525000 11 31 40
0.184860 -0.182894 0.524000 10 30 41
0.187588 -0.182196 0.522000 9 27 39
0.189924 -0.181149 0.519000 8 26 38
0.192220 -0.180102 0.516000 9 27 39
0.194476 -0.179055 0.513000 9 27 39
0.197465 -0.178706 0.512000 10 28 38
0.200048 -0.178008 0.510000 9 27 39
0.203004 -0.177658 0.509000 6 24 36
0.205946 -0.177309 0.508000 8 28 39
0.208876 -0.176960 0.507000 8 26 38
0.210955 -0.175913 0.504000 9 27 37
0.213419 -0.175215 0.502000 9 25 38
0.215426 -0.174168 0.499000 9 28 42
0.216955 -0.172772 0.495000 10 29 43
0.219321 -0.172074 0.493000 6 25 39
0.222112 -0.171725 0.492000 10 29 43
0.224432 -0.171027 0.490000 8 26 38
0.227191 -0.170678 0.489000 9 28 42
0.229465 -0.169980 0.487000 8 30 43
0.232668 -0.169980 0.487000 9 28 42
0.234902 -0.169282 0.485000 8 27 41
0.237602 -0.168933 0.484000 8 28 39
0.239790 -0.168235 0.482000 10 29 43
0.242456 -0.167886 0.481000 8 26 38
0.244599 -0.167187 0.479000 9 25 38
0.247232 -0.166838 0.478000 7 25 37
-0.464179 -0.324987 0.949000 0 41 70
-0.453111 -0.321562 0.939000 26 44 68
-0.421983 -0.307864 0.899000 36 73 99
-0.416533 -0.308207 0.900000 33 67 92
-0.409245 -0.307179 0.897000 35 67 90
-0.403345 -0.307179 0.897000 30 65 87
-0.397445 -0.307179 0.897000 27 62 84
-0.391545 -0.307179 0.897000 25 60 80
-0.386935 -0.308207 0.900000 24 59 79
-0.382285 -0.309234 0.903000 25 58 77
-0.377179 -0.309919 0.905000 21 54 73
-0.372457 -0.310946 0.908000 20 51 71
-0.366889 -0.311289 0.909000 19 51 66
-0.360910 -0.311289 0.909000 19 48 64
-0.354931 -0.311289 0.909000 18 45 62
-0.348952 -0.311289 0.909000 19 46 63
-0.343728 -0.311974 0.911000 17 45 59
-0.338477 -0.312658 0.913000 15 43 57
-0.333200 -0.313343 0.915000 13 41 55
-0.327182 -0.313343 0.915000 13 41 55
-0.321514 -0.313686 0.916000 13 39 54
-0.316178 -0.314371 0.918000 15 38 54
-0.310478 -0.314713 0.919000 11 39 51
-0.304765 -0.315056 0.920000 12 40 54
-0.298389 -0.314713 0.919000 12 38 53
-0.292344 -0.314713 0.919000 11 37 52
-0.286299 -0.314713 0.919000 11 37 52
-0.181973 -0.218484 0.638000 12 35 49
-0.176662 -0.217114 0.634000 12 35 49
-0.172220 -0.216772 0.633000 12 35 49
-0.166994 -0.215402 0.629000 6 28 41
-0.162339 -0.214717 0.627000 2 24 35
-0.158215 -0.214717 0.627000 3 23 32
-0.154091 -0.214717 0.627000 2 19 26
-0.150206 -0.215060 0.628000 2 16 19
-0.147006 -0.216430 0.632000 3 14 16
-0.143301 -0.217114 0.634000 2 12 13
-0.140009 -0.218484 0.638000 0 8 10
-0.136025 -0.218827 0.639000 0 6 8
-0.132029 -0.219169 0.640000 5 13 15
-0.127819 -0.219169 0.640000 0 8 10
-0.123223 -0.218484 0.638000 0 9 10
-0.117161 -0.215060 0.628000 1 11 10
-0.111591 -0.212320 0.620000 5 16 18
-0.106299 -0.209923 0.613000 2 13 15
-0.101933 -0.209238 0.611000 10 28 38
-0.098235 -0.209923 0.613000 3 13 15
-0.094664 -0.210950 0.616000 7 20 26
-0.091201 -0.212320 0.620000 1 16 21
-0.087123 -0.212320 0.620000 7 18 24
-0.083179 -0.212663 0.621000 8 25 33
-0.079221 -0.213005 0.622000 4 15 17
-0.021901 -0.261291 0.763000 4 23 38
-0.017281 -0.267455 0.781000 43 71 83
-0.012253 -0.269852 0.788000 38 72 84
-0.007115 -0.271564 0.793000 27 59 72
-0.001918 -0.274304 0.801000 27 60 69
0.003359 -0.274989 0.803000 28 58 68
0.008673 -0.276016 0.806000 35 64 78
0.014026 -0.277043 0.809000 40 73 92
0.019563 -0.280126 0.818000 54 86 109
0.025278 -0.283893 0.829000 64 96 121
0.031028 -0.286632 0.837000 66 102 128
0.036882 -0.289372 0.845000 64 104 129
0.042842 -0.292111 0.853000 65 105 130
0.049134 -0.296221 0.865000 65 105 130
0.055394 -0.299303 0.874000 64 109 132
0.061772 -0.302385 0.883000 62 108 131
0.112171 -0.331151 0.967000 51 92 114
0.081575 -0.205814 0.601000 40 81 103
0.159039 -0.350328 1.023000 41 88 106
0.122356 -0.195198 0.570000 81 93 89
0.125442 -0.194170 0.567000 77 88 82
0.128488 -0.193143 0.564000 77 88 82
0.131494 -0.192115 0.561000 78 88 79
0.134702 -0.191431 0.559000 75 87 77
0.138132 -0.191088 0.558000 75 87 77
0.141548 -0.190746 0.557000 72 84 74
0.144951 -0.190403 0.556000 73 83 72
0.148073 -0.189718 0.554000 69 79 68
0.151169 -0.189033 0.552000 68 80 70
0.154239 -0.188348 0.550000 69 79 70
0.156422 -0.186636 0.545000 21 29 32
0.159126 -0.185609 0.542000 61 78 72
0.161790 -0.184582 0.539000 68 77 72
0.164722 -0.183897 0.537000 33 65 54
0.167627 -0.183212 0.535000 19 47 32
0.170506 -0.182527 0.533000 26 49 33
0.173359 -0.181842 0.531000 32 67 45
0.176186 -0.181157 0.529000 55 86 70
0.180005 -0.181499 0.530000 57 69 67
0.184876 -0.182869 0.534000 30 45 50
0.191916 -0.186294 0.544000 28 45 55
0.195135 -0.185951 0.543000 4 17 25
0.196510 -0.183897 0.537000 9 20 26
0.196690 -0.180815 0.528000 4 17 23
0.198646 -0.179445 0.524000 6 19 25
0.202093 -0.179445 0.524000 4 17 23
0.205540 -0.179445 0.524000 7 18 20
0.208986 -0.179445 0.524000 6 20 23
0.206757 -0.174650 0.510000 5 20 27
0.209288 -0.173966 0.508000 7 21 30
0.211792 -0.173281 0.506000 11 29 39
0.214270 -0.172596 0.504000 9 27 39
0.216290 -0.171568 0.501000 7 27 38
0.217393 -0.169856 0.496000 5 23 33
0.219766 -0.169171 0.494000 12 23 29
0.222112 -0.168486 0.492000 7 24 34
0.224890 -0.168144 0.491000 6 28 42
0.227191 -0.167459 0.489000 7 25 37
0.229936 -0.167116 0.488000 8 26 36
0.232668 -0.166774 0.487000 9 26 36
0.235387 -0.166432 0.486000 9 26 36
0.237602 -0.165747 0.484000 10 27 37
0.239790 -0.165062 0.482000 9 27 37
0.242456 -0.164719 0.481000 9 26 36
0.244599 -0.164034 0.479000 13 27 40
0.247232 -0.163692 0.478000 7 25 37
-0.418826 -0.308328 0.918000 33 68 88
-0.408741 -0.305305 0.909000 30 65 87
-0.402319 -0.304969 0.908000 27 62 84
-0.395910 -0.304633 0.907000 25 60 80
-0.390374 -0.304969 0.908000 23 58 78
-0.385672 -0.305977 0.911000 24 56 77
-0.380097 -0.306313 0.912000 22 55 74
-0.375739 -0.307656 0.916000 19 52 69
-0.370521 -0.308328 0.918000 18 51 66
-0.364483 -0.308328 0.918000 17 49 64
-0.357664 -0.307656 0.916000 16 48 63
-0.351255 -0.307320 0.915000 18 47 63
-0.345237 -0.307320 0.915000 16 45 61
-0.339589 -0.307656 0.916000 15 43 57
-0.333200 -0.307320 0.915000 15 43 57
-0.327539 -0.307656 0.916000 15 43 57
-0.322216 -0.308328 0.918000 12 40 54
-0.316523 -0.308664 0.919000 13 39 54
-0.310816 -0.309000 0.920000 13 39 54
-0.305759 -0.310007 0.923000 12 38 53
-0.299688 -0.310007 0.923000 13 39 54
-0.182258 -0.214620 0.639000 11 37 52
-0.177219 -0.213613 0.636000 10 36 49
-0.172492 -0.212941 0.634000 10 36 49
-0.167260 -0.211598 0.630000 6 28 41
-0.162598 -0.210926 0.628000 3 25 36
-0.158215 -0.210590 0.627000 4 24 33
-0.154337 -0.210926 0.628000 2 19 26
-0.150685 -0.211598 0.630000 3 17 20
-0.147239 -0.212605 0.633000 1 15 16
-0.143527 -0.213277 0.635000 3 13 14
-0.140009 -0.214285 0.638000 0 9 10
-0.136238 -0.214956 0.640000 1 9 11
-0.132441 -0.215628 0.642000 4 12 14
-0.128219 -0.215628 0.642000 0 7 9
-0.123223 -0.214285 0.638000 2 12 13
-0.117348 -0.211262 0.629000 2 12 13
-0.111951 -0.208911 0.622000 5 16 18
-0.106646 -0.206560 0.615000 0 13 14
-0.102934 -0.207231 0.617000 5 20 25
-0.099197 -0.207903 0.619000 0 13 14
-0.095432 -0.208575 0.621000 6 17 19
-0.091495 -0.208911 0.622000 0 12 18
-0.087544 -0.209246 0.623000 12 29 39
-0.083447 -0.209246 0.623000 7 24 32
-0.079349 -0.209246 0.623000 3 13 15
-0.022045 -0.257948 0.768000 26 55 73
-0.017104 -0.259627 0.773000 7 31 43
-0.012237 -0.264329 0.787000 37 75 86
-0.007115 -0.266344 0.793000 30 66 78
-0.001913 -0.268359 0.799000 30 59 75
0.003355 -0.269367 0.802000 33 62 76
0.008673 -0.270711 0.806000 39 68 84
0.014026 -0.271718 0.809000 45 80 100
0.019539 -0.274405 0.817000 56 92 116
0.025217 -0.277764 0.827000 67 104 130
0.030953 -0.280451 0.835000 62 107 130
0.036795 -0.283138 0.843000 63 108 131
0.042792 -0.286161 0.852000 65 107 131
0.049077 -0.290191 0.864000 65 107 131
0.055330 -0.293214 0.873000 65 111 134
0.061702 -0.296237 0.882000 62 110 132
0.075715 -0.305977 0.911000 60 108 131
0.082514 -0.309000 0.920000 60 106 130
0.089239 -0.311351 0.927000 62 104 129
0.096674 -0.315717 0.940000 59 101 123
0.104060 -0.319412 0.951000 50 96 119
0.111707 -0.323442 0.963000 51 92 114
0.118899 -0.325793 0.970000 44 91 111
0.126700 -0.329488 0.981000 45 86 108
0.134917 -0.333854 0.994000 43 86 105
0.142593 -0.336541 1.002000 37 80 99
0.150971 -0.340571 1.014000 38 83 102
0.158728 -0.342922 1.021000 45 90 109
0.165930 -0.343930 1.024000 55 97 119
0.173508 -0.345609 1.029000 64 106 130
0.180977 -0.346953 1.033000 67 112 135
0.188135 -0.347625 1.035000 69 115 139
0.195885 -0.349304 1.040000 72 117 138
0.203115 -0.349976 1.042000 76 109 128
0.148608 -0.186743 0.556000 73 83 72
0.151443 -0.185736 0.553000 72 84 74
0.154520 -0.185064 0.551000 73 84 78
0.161790 -0.181033 0.539000 71 81 70
0.164722 -0.180362 0.537000 32 65 46
0.171146 -0.179690 0.535000 32 61 33
0.174339 -0.179354 0.534000 39 79 44
0.178517 -0.180026 0.536000 57 85 63
0.188156 -0.186072 0.554000 59 70 62
0.192146 -0.186407 0.555000 45 58 64
0.196855 -0.187415 0.558000 39 55 68
0.203400 -0.190102 0.566000 3 14 20
0.203829 -0.187079 0.557000 6 14 17
0.206228 -0.182713 0.544000 5 17 17
0.208649 -0.181705 0.541000 5 14 13
0.215738 -0.184728 0.550000 5 11 11
0.213772 -0.180026 0.536000 4 12 14
0.214865 -0.178011 0.530000 8 18 19
0.214231 -0.174652 0.520000 7 20 26
0.212210 -0.170286 0.507000 23 45 56
0.214695 -0.169614 0.505000 24 41 51
0.301337 -0.234437 0.698000 5 18 24
0.305052 -0.233765 0.696000 2 15 21
0.308295 -0.232757 0.693000 4 14 16
-0.427038 -0.308212 0.936000 31 65 90
-0.419533 -0.307224 0.933000 29 65 87
-0.410294 -0.304919 0.926000 26 62 84
-0.402894 -0.303932 0.923000 26 61 81
-0.396393 -0.303602 0.922000 23 58 78
-0.390752 -0.303932 0.923000 23 56 75
-0.384681 -0.303932 0.923000 22 53 71
-0.379431 -0.304590 0.925000 21 52 70
-0.373750 -0.304919 0.926000 19 50 68
-0.368056 -0.305249 0.927000 17 49 64
-0.361959 -0.305249 0.927000 17 49 64
-0.355478 -0.304919 0.926000 19 48 64
-0.347878 -0.303602 0.922000 18 46 60
-0.341072 -0.302944 0.920000 17 44 61
-0.334293 -0.302285 0.918000 16 43 60
-0.328255 -0.302285 0.918000 14 41 58
-0.322216 -0.302285 0.918000 13 41 55
-0.316867 -0.302944 0.920000 13 41 55
-0.311492 -0.303602 0.922000 12 40 54
-0.306421 -0.304590 0.925000 13 41 55
-0.300986 -0.305249 0.927000 13 41 55
-0.296480 -0.306895 0.932000 13 39 54
-0.182543 -0.210743 0.640000 9 37 49
-0.177498 -0.209756 0.637000 9 37 49
-0.172764 -0.209097 0.635000 9 37 49
-0.167791 -0.208109 0.632000 5 29 41
-0.163116 -0.207451 0.630000 3 25 36
-0.158972 -0.207451 0.630000 4 24 33
-0.154828 -0.207451 0.630000 3 20 27
-0.151163 -0.208109 0.632000 3 16 22
-0.147471 -0.208768 0.634000 3 14 16
-0.143753 -0.209426 0.636000 2 12 13
-0.140228 -0.210414 0.639000 1 9 11
-0.136238 -0.210743 0.640000 0 8 10
-0.132441 -0.211402 0.642000 3 11 13
-0.128219 -0.211402 0.642000 0 7 9
-0.123416 -0.210414 0.639000 5 13 15
-0.117534 -0.207451 0.630000 1 11 12
-0.112491 -0.205804 0.625000 6 16 17
-0.107513 -0.204158 0.620000 3 15 15
-0.103602 -0.204487 0.621000 0 14 15
-0.099677 -0.204816 0.622000 0 12 12
-0.095740 -0.205146 0.623000 3 15 15
-0.091789 -0.205475 0.624000 0 13 19
-0.087685 -0.205475 0.624000 12 30 42
-0.083581 -0.205475 0.624000 3 22 29
-0.079604 -0.205804 0.625000 3 14 16
-0.086001 -0.234452 0.712000 13 27 30
-0.083831 -0.241696 0.734000 2 16 27
-0.079111 -0.242026 0.735000 2 20 30
-0.074478 -0.242684 0.737000 17 39 52
-0.069820 -0.243343 0.739000 15 41 58
-0.065135 -0.244001 0.741000 23 56 75
-0.042636 -0.255197 0.775000 37 55 65
-0.031646 -0.248941 0.756000 14 34 43
-0.026673 -0.248941 0.756000 10 29 44
-0.021901 -0.251246 0.763000 39 74 94
-0.017038 -0.253551 0.770000 9 29 40
-0.012222 -0.258819 0.786000 38 74 88
-0.007097 -0.260466 0.791000 34 70 84
-0.001909 -0.262441 0.797000 30 63 78
0.003342 -0.263100 0.799000 32 66 78
0.008673 -0.265405 0.806000 38 71 86
0.014061 -0.267051 0.811000 46 84 103
0.019563 -0.269356 0.818000 55 98 117
0.025217 -0.272320 0.827000 65 108 127
0.030879 -0.274296 0.833000 62 104 126
0.036795 -0.277589 0.843000 66 108 132
0.042691 -0.279894 0.850000 66 108 132
0.048964 -0.283845 0.862000 64 109 132
0.055140 -0.286479 0.870000 66 112 135
0.061772 -0.290760 0.883000 64 112 135
0.068575 -0.295041 0.896000 64 110 134
0.075383 -0.298663 0.907000 63 109 133
0.082514 -0.302944 0.920000 61 105 130
0.089239 -0.305249 0.927000 59 103 128
0.096674 -0.309529 0.940000 60 100 125
0.103841 -0.312493 0.949000 53 98 119
0.111707 -0.317103 0.963000 52 95 114
0.119144 -0.320067 0.972000 46 91 110
0.126700 -0.323030 0.981000 45 86 106
0.135188 -0.327969 0.996000 43 86 105
0.142593 -0.329945 1.002000 39 82 101
0.151268 -0.334555 1.016000 41 84 103
0.158417 -0.335543 1.019000 47 89 111
0.166254 -0.337848 1.026000 55 97 121
0.173508 -0.338836 1.029000 63 105 129
0.181328 -0.340812 1.035000 66 111 134
0.189044 -0.342458 1.040000 68 114 138
0.198333 -0.346739 1.053000 71 116 137
0.205259 -0.346739 1.053000 73 109 131
0.211782 -0.346080 1.051000 75 85 76
0.215574 -0.341141 1.036000 82 83 77
0.263328 -0.309200 0.939000 34 57 71
0.171466 -0.176498 0.536000 40 63 37
0.188835 -0.183083 0.556000 99 109 108
0.196993 -0.187364 0.569000 25 38 47
0.201441 -0.188023 0.571000 15 29 42
0.206994 -0.189669 0.576000 1 12 18
0.209684 -0.188681 0.573000 4 12 15
0.212708 -0.188023 0.571000 2 13 15
0.215327 -0.187035 0.568000 4 16 16
0.219063 -0.187035 0.568000 2 11 10
0.222014 -0.186376 0.566000 3 9 9
0.225338 -0.186047 0.565000 2 11 10
0.296746 -0.229842 0.698000 4 15 19
0.300906 -0.229513 0.697000 2 13 15
0.304175 -0.228525 0.694000 3 14 16
0.306516 -0.226878 0.689000 2 10 12
0.307436 -0.224244 0.681000 3 14 16
0.318664 -0.219634 0.667000 2 14 14
0.323051 -0.219634 0.667000 2 13 15
-0.431144 -0.304955 0.945000 36 68 89
-0.422680 -0.303342 0.940000 31 66 86
-0.414282 -0.301728 0.935000 26 63 82
-0.406823 -0.300760 0.932000 22 59 78
-0.398543 -0.299147 0.927000 21 58 77
-0.393292 -0.299792 0.929000 23 56 75
-0.387182 -0.299792 0.929000 22 53 71
-0.381481 -0.300115 0.930000 21 52 70
-0.374961 -0.299792 0.929000 21 52 70
-0.370042 -0.300760 0.932000 17 50 65
-0.363911 -0.300760 0.932000 16 49 64
-0.357013 -0.300115 0.930000 18 50 65
-0.350519 -0.299792 0.929000 17 46 60
-0.343297 -0.298824 0.926000 17 46 62
-0.335749 -0.297533 0.922000 14 43 59
-0.328970 -0.296888 0.920000 15 44 60
-0.322918 -0.296888 0.920000 15 42 59
-0.317556 -0.297533 0.922000 15 43 57
-0.312505 -0.298501 0.925000 15 43 57
-0.307746 -0.299792 0.929000 12 40 54
-0.302610 -0.300760 0.932000 12 40 54
-0.297434 -0.301728 0.935000 13 39 54
-0.177219 -0.205240 0.636000 9 37 49
-0.173036 -0.205240 0.636000 8 36 48
-0.168322 -0.204594 0.634000 6 29 43
-0.164152 -0.204594 0.634000 6 26 37
-0.159477 -0.203949 0.632000 5 23 33
-0.155566 -0.204272 0.633000 3 20 28
-0.151402 -0.204272 0.633000 3 16 22
-0.147937 -0.205240 0.636000 3 14 16
-0.143753 -0.205240 0.636000 3 13 14
-0.140228 -0.206208 0.639000 1 9 11
-0.136238 -0.206531 0.640000 0 9 10
-0.132441 -0.207176 0.642000 3 11 13
-0.128019 -0.206853 0.641000 0 8 7
-0.123416 -0.206208 0.639000 4 12 14
-0.117908 -0.203949 0.632000 0 10 11
-0.113031 -0.202658 0.628000 5 15 14
-0.108380 -0.201690 0.625000 1 11 10
-0.104269 -0.201690 0.625000 3 13 14
-0.100639 -0.202658 0.628000 2 12 11
-0.096508 -0.202658 0.628000 2 13 15
-0.092378 -0.202658 0.628000 9 26 33
-0.088247 -0.202658 0.628000 10 30 41
-0.084116 -0.202658 0.628000 3 18 25
-0.079986 -0.202658 0.628000 8 19 23
-0.083602 -0.236219 0.732000 6 33 44
-0.079218 -0.237510 0.736000 2 14 26
-0.074579 -0.238156 0.738000 10 28 38
-0.069820 -0.238478 0.739000 31 61 72
-0.065135 -0.239124 0.741000 20 51 69
-0.060261 -0.239124 0.741000 22 53 71
-0.055761 -0.240737 0.746000 29 58 72
-0.051127 -0.242028 0.750000 29 63 73
-0.046748 -0.244932 0.759000 20 50 61
-0.042141 -0.247191 0.766000 17 40 54
-0.037054 -0.246869 0.765000 17 39 50
-0.031646 -0.243964 0.756000 13 30 38
-0.026602 -0.243319 0.754000 10 28 42
-0.021700 -0.243964 0.756000 54 92 115
-0.016949 -0.247191 0.766000 3 23 32
-0.012160 -0.252355 0.782000 41 73 88
-0.007052 -0.253645 0.786000 34 73 88
-0.001894 -0.255259 0.791000 30 63 82
0.003321 -0.256227 0.794000 28 57 75
0.008640 -0.259131 0.803000 17 45 59
0.014044 -0.261390 0.810000 11 39 53
0.019586 -0.264295 0.819000 13 36 52
0.025217 -0.266876 0.827000 18 41 59
0.030879 -0.268812 0.833000 19 44 64
0.036620 -0.270749 0.839000 39 70 91
0.042440 -0.272685 0.845000 66 104 125
0.048680 -0.276557 0.857000 69 111 133
0.054950 -0.279784 0.867000 66 112 136
0.061842 -0.285270 0.884000 65 111 135
0.068805 -0.290111 0.899000 65 111 135
0.075466 -0.293015 0.908000 64 108 133
0.082425 -0.296565 0.919000 62 106 131
0.089239 -0.299147 0.927000 60 104 129
0.096571 -0.303019 0.939000 59 101 125
0.103841 -0.306246 0.949000 47 85 104
0.111823 -0.311087 0.964000 50 95 114
0.119267 -0.313991 0.973000 48 91 110
0.126958 -0.317218 0.983000 46 87 107
0.135188 -0.321413 0.996000 43 86 105
0.142878 -0.323995 1.004000 41 84 103
0.151268 -0.327867 1.016000 40 83 102
0.158728 -0.329481 1.021000 49 90 110
0.166254 -0.331094 1.026000 54 96 118
0.173846 -0.332708 1.031000 63 105 129
0.182204 -0.335612 1.040000 66 110 135
0.189953 -0.337226 1.045000 70 116 140
0.199275 -0.341421 1.058000 70 114 139
0.206234 -0.341421 1.058000 74 116 141
0.211782 -0.339162 1.051000 72 88 85
0.214117 -0.332062 1.029000 76 81 74
0.217022 -0.326254 1.011000 44 49 45
0.221017 -0.322381 0.999000 75 76 70
0.225765 -0.319800 0.991000 72 75 64
0.244278 -0.302374 0.937000 33 60 69
0.250174 -0.302051 0.936000 31 58 69
0.256057 -0.301728 0.935000 28 56 67
0.263328 -0.303019 0.939000 27 55 66
0.269791 -0.303342 0.940000 28 51 65
0.276561 -0.303987 0.942000 21 35 46
0.200455 -0.186846 0.579000 22 38 51
0.204263 -0.186846 0.579000 16 30 43
0.207712 -0.186523 0.578000 1 10 15
0.211148 -0.186200 0.577000 4 14 15
0.214571 -0.185877 0.576000 3 15 15
0.218359 -0.185877 0.576000 3 15 15
0.222148 -0.185877 0.576000 2 11 10
0.225937 -0.185877 0.576000 1 10 9
0.229725 -0.185877 0.576000 0 9 6
0.233514 -0.185877 0.576000 7 19 19
0.292993 -0.225893 0.700000 5 13 15
0.297172 -0.225570 0.699000 4 14 16
0.300042 -0.224279 0.695000 14 29 32
0.302860 -0.222988 0.691000 6 19 25
0.305181 -0.221375 0.686000 0 10 14
0.306533 -0.219116 0.679000 2 10 13
0.308709 -0.217502 0.674000 2 10 12
0.310819 -0.215889 0.669000 0 11 11
0.314748 -0.215566 0.668000 0 10 11
0.318664 -0.215244 0.667000 1 13 13
0.323536 -0.215566 0.668000 1 13 13
0.328911 -0.216212 0.670000 1 13 13
0.335308 -0.217502 0.674000 5 16 20
0.347806 -0.222666 0.690000 14 30 43
-0.435250 -0.301580 0.954000 33 68 88
-0.425378 -0.299051 0.946000 31 66 86
-0.415168 -0.296206 0.937000 28 63 83
-0.408132 -0.295574 0.935000 26 61 81
-0.399833 -0.293993 0.930000 24 59 79
-0.394986 -0.294941 0.933000 23 55 76
-0.388432 -0.294625 0.932000 21 54 73
-0.382712 -0.294941 0.933000 20 53 72
-0.376575 -0.294941 0.933000 20 53 70
-0.371630 -0.295890 0.936000 17 50 65
-0.365864 -0.296206 0.937000 18 49 67
-0.359701 -0.296206 0.937000 18 49 67
-0.351651 -0.294625 0.932000 17 49 64
-0.344409 -0.293677 0.929000 14 47 62
-0.336842 -0.292412 0.925000 13 45 60
-0.330042 -0.291780 0.923000 14 46 61
-0.323971 -0.291780 0.923000 15 44 58
-0.318589 -0.292412 0.925000 13 41 55
-0.312843 -0.292728 0.926000 13 41 55
-0.308740 -0.294625 0.932000 13 41 55
-0.303584 -0.295574 0.935000 13 41 55
-0.298706 -0.296838 0.939000 13 41 55
-0.292842 -0.297154 0.940000 13 41 55
-0.174124 -0.202318 0.640000 9 36 47
-0.169915 -0.202318 0.640000 7 31 43
-0.165705 -0.202318 0.640000 5 24 38
-0.160991 -0.201685 0.638000 6 22 35
-0.156795 -0.201685 0.638000 3 20 28
-0.152598 -0.201685 0.638000 2 17 22
-0.148402 -0.201685 0.638000 1 15 16
-0.144431 -0.202002 0.639000 2 14 14
-0.140448 -0.202318 0.640000 0 10 11
-0.136238 -0.202318 0.640000 1 9 11
-0.132235 -0.202634 0.641000 0 9 8
-0.127819 -0.202318 0.640000 0 8 7
-0.123416 -0.202002 0.639000 3 13 14
-0.118281 -0.200421 0.634000 2 13 15
-0.113931 -0.200105 0.633000 4 14 15
-0.109594 -0.199789 0.632000 0 10 11
-0.105437 -0.199789 0.632000 0 10 11
-0.101280 -0.199789 0.632000 0 12 12
-0.097123 -0.199789 0.632000 3 18 23
-0.092819 -0.199473 0.631000 10 28 38
-0.088528 -0.199156 0.630000 9 29 38
-0.084652 -0.199789 0.632000 0 15 20
-0.081896 -0.203266 0.643000 0 12 18
-0.084431 -0.220969 0.699000 17 44 55
-0.082689 -0.228872 0.724000 32 65 80
-0.079218 -0.232665 0.736000 13 41 53
-0.074781 -0.233930 0.740000 3 21 33
-0.070103 -0.234562 0.742000 8 22 33
-0.065223 -0.234562 0.742000 18 42 54
-0.060342 -0.234562 0.742000 20 47 64
-0.055611 -0.235194 0.744000 19 45 60
-0.050922 -0.236143 0.747000 21 53 68
-0.046440 -0.238356 0.754000 19 48 62
-0.041756 -0.239936 0.759000 40 63 69
-0.036909 -0.240885 0.762000 20 39 45
-0.031813 -0.240252 0.760000 10 29 36
-0.026673 -0.238988 0.756000 9 27 39
-0.021729 -0.239304 0.757000 40 86 110
-0.016905 -0.241517 0.764000 3 23 32
-0.012129 -0.246575 0.780000 38 66 80
-0.007025 -0.247523 0.783000 16 52 66
-0.001889 -0.249420 0.789000 8 34 51
0.003321 -0.251000 0.794000 4 30 47
0.008651 -0.254162 0.804000 32 59 78
0.014061 -0.256374 0.811000 39 72 89
0.019634 -0.259536 0.821000 46 83 99
0.025309 -0.262381 0.830000 51 88 104
0.030879 -0.263329 0.833000 26 62 78
0.036533 -0.264594 0.837000 4 32 53
0.042038 -0.264594 0.837000 10 38 59
0.047884 -0.266490 0.843000 27 63 85
0.054126 -0.269968 0.854000 67 112 135
0.061422 -0.277555 0.878000 67 112 135
0.068345 -0.282296 0.893000 66 112 135
0.075466 -0.287038 0.908000 66 111 134
0.082425 -0.290516 0.919000 66 108 132
0.089143 -0.292728 0.926000 61 106 129
0.096571 -0.296838 0.939000 57 99 121
0.103841 -0.299999 0.949000 18 43 63
0.112055 -0.305373 0.966000 53 91 110
0.119512 -0.308218 0.975000 49 91 113
0.127346 -0.311696 0.986000 43 88 109
0.135324 -0.315173 0.997000 41 86 107
0.143163 -0.318018 1.006000 39 84 103
0.151268 -0.321179 1.016000 42 85 102
0.158728 -0.322760 1.021000 48 91 108
0.166254 -0.324341 1.026000 54 97 116
0.174183 -0.326553 1.033000 60 105 128
0.183080 -0.330347 1.045000 65 111 134
0.191589 -0.333192 1.054000 67 115 135
0.200970 -0.337302 1.067000 71 115 140
0.207404 -0.336353 1.064000 68 115 141
0.211782 -0.332244 1.051000 64 83 89
0.213493 -0.324341 1.026000 70 76 64
0.216592 -0.318966 1.009000 55 61 59
0.221017 -0.315805 0.999000 69 74 67
0.225765 -0.313276 0.991000 71 74 65
0.230408 -0.310747 0.983000 42 59 66
0.233018 -0.305689 0.967000 32 64 77
0.236903 -0.302528 0.957000 21 50 64
0.239386 -0.297786 0.942000 31 55 67
0.244278 -0.296206 0.937000 31 55 67
0.249907 -0.295574 0.935000 25 51 66
0.256330 -0.295890 0.936000 20 46 63
0.263328 -0.296838 0.939000 28 51 67
0.269791 -0.297154 0.940000 27 50 64
0.276561 -0.297786 0.942000 13 31 43
0.283058 -0.298102 0.943000 20 42 55
0.201147 -0.183667 0.581000 13 36 50
0.204969 -0.183667 0.581000 14 28 39
0.208790 -0.183667 0.581000 1 11 13
0.211880 -0.183034 0.579000 4 16 16
0.215688 -0.183034 0.579000 4 16 16
0.219118 -0.182718 0.578000 4 16 16
0.222919 -0.182718 0.578000 2 11 8
0.226721 -0.182718 0.578000 2 11 10
0.230922 -0.183034 0.579000 1 7 5
0.234730 -0.183034 0.579000 6 21 26
0.290448 -0.222866 0.705000 4 19 26
0.294667 -0.222549 0.704000 17 28 30
0.298872 -0.222233 0.703000 24 35 41
0.300906 -0.220337 0.697000 20 35 42
0.302422 -0.218124 0.690000 6 19 25
0.304291 -0.216227 0.684000 0 9 14
0.305630 -0.214014 0.677000 0 10 12
0.308709 -0.213066 0.674000 1 11 13
0.310819 -0.211485 0.669000 0 10 11
0.315220 -0.211485 0.669000 1 11 12
0.319620 -0.211485 0.669000 2 12 13
0.324020 -0.211485 0.669000 2 14 14
