ply
format ascii 1.0
element vertex 1189
property float x
property float y
property float z
property uchar red
property uchar green
property uchar blue
end_header
0.055378 -0.024235 0.408000 115 125 116
-0.098857 -0.022447 0.425000 127 129 118
-0.096062 -0.022447 0.425000 126 128 117
-0.093266 -0.022447 0.425000 126 128 117
-0.090471 -0.022447 0.425000 124 126 115
-0.087469 -0.022395 0.424000 125 127 116
-0.084680 -0.022395 0.424000 125 127 114
-0.081698 -0.022342 0.423000 124 126 113
-0.078170 -0.022131 0.419000 124 126 113
-0.075234 -0.022078 0.418000 123 125 112
-0.072484 -0.022078 0.418000 124 126 113
-0.069735 -0.022078 0.418000 123 125 112
-0.066825 -0.022025 0.417000 122 124 111
-0.063929 -0.021972 0.416000 122 124 111
-0.061046 -0.021919 0.415000 122 124 113
-0.058316 -0.021919 0.415000 122 124 113
-0.055586 -0.021919 0.415000 122 124 113
-0.052984 -0.021972 0.416000 122 124 113
-0.050248 -0.021972 0.416000 121 123 112
-0.047512 -0.021972 0.416000 122 124 113
-0.044776 -0.021972 0.416000 120 123 112
-0.042039 -0.021972 0.416000 120 123 112
-0.039303 -0.021972 0.416000 120 123 112
-0.036479 -0.021919 0.415000 120 123 112
-0.033668 -0.021866 0.414000 121 124 113
-0.030870 -0.021814 0.413000 119 122 111
-0.028154 -0.021814 0.413000 118 121 110
-0.025376 -0.021761 0.412000 118 121 110
-0.022611 -0.021708 0.411000 120 123 112
-0.019907 -0.021708 0.411000 117 123 111
-0.017204 -0.021708 0.411000 118 124 114
-0.014501 -0.021708 0.411000 118 124 114
-0.011797 -0.021708 0.411000 118 126 115
-0.009094 -0.021708 0.411000 117 125 114
-0.006391 -0.021708 0.411000 118 126 115
-0.003688 -0.021708 0.411000 117 127 116
-0.000984 -0.021708 0.411000 118 125 117
0.001715 -0.021655 0.410000 115 125 116
0.004412 -0.021655 0.410000 116 126 117
0.007091 -0.021602 0.409000 117 127 118
0.009781 -0.021602 0.409000 117 127 116
0.012471 -0.021602 0.409000 115 125 116
0.015162 -0.021602 0.409000 116 126 117
0.017852 -0.021602 0.409000 116 126 117
0.020542 -0.021602 0.409000 116 127 119
0.023175 -0.021550 0.408000 117 128 120
0.025542 -0.021285 0.403000 118 128 120
0.028193 -0.021285 0.403000 118 128 120
0.030843 -0.021285 0.403000 118 128 120
0.033411 -0.021233 0.402000 118 128 120
0.035965 -0.021180 0.401000 117 127 119
0.038507 -0.021127 0.400000 117 127 119
0.041138 -0.021127 0.400000 117 124 117
0.043769 -0.021127 0.400000 118 125 118
0.046400 -0.021127 0.400000 118 125 118
0.049031 -0.021127 0.400000 114 124 116
0.051662 -0.021127 0.400000 117 127 119
0.054293 -0.021127 0.400000 115 125 117
0.056924 -0.021127 0.400000 116 126 118
-0.096764 -0.019234 0.416000 129 131 120
-0.093801 -0.019188 0.415000 131 133 122
-0.091730 -0.019326 0.418000 129 130 122
-0.088342 -0.019188 0.415000 128 129 121
-0.085612 -0.019188 0.415000 128 130 119
-0.082683 -0.019141 0.414000 126 128 115
-0.079960 -0.019141 0.414000 125 127 114
-0.077050 -0.019095 0.413000 125 129 115
-0.074334 -0.019095 0.413000 124 128 114
-0.071617 -0.019095 0.413000 125 127 114
-0.068734 -0.019049 0.412000 124 126 113
-0.065864 -0.019003 0.411000 123 125 112
-0.063161 -0.019003 0.411000 124 126 113
-0.060310 -0.018956 0.410000 124 126 113
-0.057473 -0.018910 0.409000 124 126 113
-0.054783 -0.018910 0.409000 123 123 113
-0.052093 -0.018910 0.409000 122 124 113
-0.049523 -0.018956 0.410000 122 124 113
-0.046826 -0.018956 0.410000 124 126 115
-0.044130 -0.018956 0.410000 122 125 116
-0.041433 -0.018956 0.410000 121 124 115
-0.038642 -0.018910 0.409000 120 126 116
-0.035952 -0.018910 0.409000 119 125 115
-0.033099 -0.018818 0.407000 121 124 115
-0.030422 -0.018818 0.407000 122 125 114
-0.027472 -0.018633 0.403000 119 125 113
-0.024821 -0.018633 0.403000 118 124 112
-0.022116 -0.018586 0.402000 119 125 115
-0.019520 -0.018633 0.403000 118 124 114
-0.016869 -0.018633 0.403000 118 124 112
-0.014219 -0.018633 0.403000 118 124 112
-0.011539 -0.018586 0.402000 119 125 113
-0.008895 -0.018586 0.402000 119 125 113
-0.006251 -0.018586 0.402000 118 126 115
-0.003607 -0.018586 0.402000 119 127 116
-0.000963 -0.018586 0.402000 118 126 115
0.001681 -0.018586 0.402000 119 127 116
0.004326 -0.018586 0.402000 120 128 117
0.006952 -0.018540 0.401000 120 128 117
0.009590 -0.018540 0.401000 118 128 117
0.012197 -0.018494 0.400000 119 129 118
0.014828 -0.018494 0.400000 120 130 121
0.017415 -0.018448 0.399000 118 128 119
0.020040 -0.018448 0.399000 117 127 118
0.022607 -0.018402 0.398000 118 128 119
0.025162 -0.018355 0.397000 117 127 118
0.027773 -0.018355 0.397000 118 128 119
0.030384 -0.018355 0.397000 118 128 119
0.032912 -0.018309 0.396000 117 127 118
0.035427 -0.018263 0.395000 118 128 119
0.038025 -0.018263 0.395000 118 128 119
0.040521 -0.018217 0.394000 119 126 118
0.043222 -0.018263 0.395000 120 127 119
0.045820 -0.018263 0.395000 119 126 119
0.048418 -0.018263 0.395000 118 125 118
0.050887 -0.018217 0.394000 118 128 120
0.053342 -0.018170 0.393000 120 127 120
0.055927 -0.018170 0.393000 119 126 119
0.058512 -0.018170 0.393000 119 126 119
-0.095368 -0.016257 0.410000 131 133 122
-0.092445 -0.016218 0.409000 131 133 122
-0.089535 -0.016178 0.408000 131 133 122
-0.086852 -0.016178 0.408000 132 134 123
-0.084168 -0.016178 0.408000 131 133 122
-0.081485 -0.016178 0.408000 130 132 121
-0.078608 -0.016139 0.407000 129 132 121
-0.075371 -0.016020 0.404000 126 132 120
-0.072714 -0.016020 0.404000 127 130 119
-0.070230 -0.016059 0.405000 124 127 116
-0.067399 -0.016020 0.404000 125 128 117
-0.064742 -0.016020 0.404000 124 127 116
-0.061778 -0.015940 0.402000 123 126 115
-0.059133 -0.015940 0.402000 124 127 116
-0.056349 -0.015901 0.401000 124 127 116
-0.053711 -0.015901 0.401000 123 126 117
-0.051074 -0.015901 0.401000 123 126 117
-0.048436 -0.015901 0.401000 122 125 116
-0.045799 -0.015901 0.401000 123 126 117
-0.043269 -0.015940 0.402000 124 125 117
-0.040523 -0.015901 0.401000 124 125 117
-0.037791 -0.015861 0.400000 124 125 117
-0.035073 -0.015821 0.399000 124 125 117
-0.032448 -0.015821 0.399000 123 126 119
-0.029749 -0.015782 0.398000 121 127 117
-0.027063 -0.015742 0.397000 120 126 116
-0.024452 -0.015742 0.397000 119 125 115
-0.021841 -0.015742 0.397000 120 126 116
-0.019229 -0.015742 0.397000 119 125 115
-0.016618 -0.015742 0.397000 120 126 116
-0.014007 -0.015742 0.397000 119 125 113
-0.011396 -0.015742 0.397000 119 125 115
-0.008762 -0.015702 0.396000 120 126 116
-0.006142 -0.015663 0.395000 120 126 116
-0.003544 -0.015663 0.395000 119 127 116
-0.000946 -0.015663 0.395000 120 128 117
0.001652 -0.015663 0.395000 119 127 116
0.004250 -0.015663 0.395000 120 128 117
0.006848 -0.015663 0.395000 121 129 118
0.012045 -0.015663 0.395000 121 131 122
0.014643 -0.015663 0.395000 119 129 120
0.017197 -0.015623 0.394000 118 128 119
0.019789 -0.015623 0.394000 119 129 120
0.022266 -0.015544 0.392000 119 129 120
0.024591 -0.015385 0.388000 118 128 119
0.027143 -0.015385 0.388000 118 128 119
0.029695 -0.015385 0.388000 118 128 119
0.032247 -0.015385 0.388000 118 128 119
0.034799 -0.015385 0.388000 118 128 119
0.037255 -0.015345 0.387000 118 128 119
0.039801 -0.015345 0.387000 119 129 120
0.042346 -0.015345 0.387000 119 129 120
0.044892 -0.015345 0.387000 120 130 122
0.047437 -0.015345 0.387000 118 128 120
0.049853 -0.015306 0.386000 118 128 120
0.052257 -0.015266 0.385000 120 127 120
0.054647 -0.015227 0.384000 120 127 120
0.057172 -0.015227 0.384000 120 127 120
0.059698 -0.015227 0.384000 121 128 121
-0.093507 -0.013294 0.402000 132 134 123
-0.090637 -0.013261 0.401000 136 138 127
-0.087999 -0.013261 0.401000 135 137 126
-0.085362 -0.013261 0.401000 134 136 125
-0.082518 -0.013228 0.400000 135 137 126
-0.079887 -0.013228 0.400000 133 135 124
-0.077256 -0.013228 0.400000 131 134 125
-0.074438 -0.013195 0.399000 127 133 123
-0.071814 -0.013195 0.399000 128 136 125
-0.069190 -0.013195 0.399000 125 133 122
-0.066398 -0.013162 0.398000 126 134 123
-0.063781 -0.013162 0.398000 124 132 121
-0.060855 -0.013096 0.396000 125 133 122
-0.058251 -0.013096 0.396000 125 131 121
-0.055646 -0.013096 0.396000 122 128 118
-0.052908 -0.013063 0.395000 122 128 118
-0.050309 -0.013063 0.395000 122 128 118
-0.047832 -0.013096 0.396000 123 129 119
-0.045228 -0.013096 0.396000 123 129 119
-0.042623 -0.013096 0.396000 121 127 117
-0.039917 -0.013063 0.395000 122 128 118
-0.037225 -0.013029 0.394000 122 128 118
-0.034633 -0.013029 0.394000 122 128 118
-0.032042 -0.013029 0.394000 121 126 119
-0.029375 -0.012996 0.393000 122 128 118
-0.026790 -0.012996 0.393000 121 127 117
-0.024021 -0.012897 0.390000 122 127 120
-0.021400 -0.012864 0.389000 121 127 117
-0.018890 -0.012897 0.390000 121 127 117
-0.016283 -0.012864 0.389000 121 127 117
-0.013725 -0.012864 0.389000 121 127 117
-0.011137 -0.012831 0.388000 122 128 118
-0.008585 -0.012831 0.388000 121 127 117
-0.006033 -0.012831 0.388000 120 126 116
-0.003481 -0.012831 0.388000 120 126 116
-0.000927 -0.012798 0.387000 120 128 117
0.001619 -0.012798 0.387000 120 128 117
0.004153 -0.012765 0.386000 121 129 118
0.006692 -0.012765 0.386000 120 128 117
0.009231 -0.012765 0.386000 121 129 118
0.011770 -0.012765 0.386000 120 127 119
0.014309 -0.012765 0.386000 121 128 120
0.016848 -0.012765 0.386000 122 129 121
0.019337 -0.012732 0.385000 122 129 121
0.021812 -0.012699 0.384000 122 129 121
0.024274 -0.012666 0.383000 121 128 120
0.026794 -0.012666 0.383000 123 130 122
0.029313 -0.012666 0.383000 119 129 120
0.031749 -0.012633 0.382000 119 129 120
0.034261 -0.012633 0.382000 119 129 120
0.036774 -0.012633 0.382000 120 127 119
0.039286 -0.012633 0.382000 121 128 120
0.041799 -0.012633 0.382000 121 128 120
0.044312 -0.012633 0.382000 121 128 120
0.046702 -0.012600 0.381000 121 128 120
0.049208 -0.012600 0.381000 122 129 122
0.051578 -0.012567 0.380000 121 128 121
0.054077 -0.012567 0.380000 121 128 121
0.056428 -0.012533 0.379000 120 127 120
0.059076 -0.012567 0.380000 120 127 120
0.061576 -0.012567 0.380000 121 128 121
-0.092344 -0.010515 0.397000 133 135 124
-0.089507 -0.010489 0.396000 135 136 128
-0.086683 -0.010462 0.395000 133 134 126
-0.084085 -0.010462 0.395000 135 136 128
-0.081280 -0.010436 0.394000 134 136 125
-0.078689 -0.010436 0.394000 133 136 125
-0.075518 -0.010356 0.391000 132 138 126
-0.072946 -0.010356 0.391000 132 140 127
-0.070374 -0.010356 0.391000 130 138 125
-0.067629 -0.010330 0.390000 129 137 126
-0.065064 -0.010330 0.390000 128 136 125
-0.062338 -0.010304 0.389000 127 135 124
-0.059780 -0.010304 0.389000 126 134 123
-0.057074 -0.010277 0.388000 125 133 122
-0.054522 -0.010277 0.388000 126 132 122
-0.051836 -0.010251 0.387000 125 133 122
-0.049291 -0.010251 0.387000 123 131 120
-0.046745 -0.010251 0.387000 124 130 120
-0.044200 -0.010251 0.387000 124 130 120
-0.041762 -0.010277 0.388000 122 130 119
-0.039109 -0.010251 0.387000 125 131 121
-0.036563 -0.010251 0.387000 125 131 121
-0.033930 -0.010224 0.386000 125 131 121
-0.031391 -0.010224 0.386000 124 130 120
-0.028852 -0.010224 0.386000 124 130 120
-0.026245 -0.010198 0.385000 125 131 121
-0.023713 -0.010198 0.385000 124 127 120
-0.021180 -0.010198 0.385000 126 131 124
-0.018600 -0.010171 0.384000 125 132 124
-0.016074 -0.010171 0.384000 124 131 123
-0.013513 -0.010145 0.383000 122 130 119
-0.010994 -0.010145 0.383000 122 129 121
-0.008475 -0.010145 0.383000 122 129 121
-0.005955 -0.010145 0.383000 122 130 119
-0.003427 -0.010118 0.382000 121 129 118
-0.000915 -0.010118 0.382000 120 128 117
0.001598 -0.010118 0.382000 120 128 117
0.004100 -0.010092 0.381000 120 128 117
0.006606 -0.010092 0.381000 121 129 118
0.009136 -0.010118 0.382000 121 129 118
0.011648 -0.010118 0.382000 121 129 118
0.014124 -0.010092 0.381000 122 130 119
0.016586 -0.010065 0.380000 122 130 119
0.019085 -0.010065 0.380000 122 130 119
0.021528 -0.010039 0.379000 122 130 119
0.023831 -0.009959 0.376000 122 130 119
0.026304 -0.009959 0.376000 124 131 123
0.028777 -0.009959 0.376000 122 132 123
0.031250 -0.009959 0.376000 122 132 123
0.033634 -0.009933 0.375000 124 131 123
0.036100 -0.009933 0.375000 124 131 123
0.038567 -0.009933 0.375000 122 129 121
0.041033 -0.009933 0.375000 121 128 120
0.043500 -0.009933 0.375000 124 131 123
0.045844 -0.009906 0.374000 122 129 121
0.048304 -0.009906 0.374000 122 129 121
0.050764 -0.009906 0.374000 122 129 121
0.053081 -0.009880 0.373000 122 129 121
0.055535 -0.009880 0.373000 120 130 122
0.057988 -0.009880 0.373000 122 132 124
0.060441 -0.009880 0.373000 121 131 123
0.062895 -0.009880 0.373000 122 132 124
-0.090716 -0.007763 0.390000 135 138 131
-0.088151 -0.007763 0.390000 134 137 130
-0.084927 -0.007703 0.387000 134 137 130
-0.082169 -0.007683 0.386000 135 138 129
-0.079424 -0.007663 0.385000 135 138 129
-0.076891 -0.007663 0.385000 132 138 128
-0.074359 -0.007663 0.385000 133 139 129
-0.071827 -0.007663 0.385000 133 139 129
-0.069294 -0.007663 0.385000 132 138 128
-0.066762 -0.007663 0.385000 131 139 128
-0.064063 -0.007643 0.384000 131 139 128
-0.061537 -0.007643 0.384000 130 138 127
-0.059011 -0.007643 0.384000 128 136 125
-0.056339 -0.007623 0.383000 128 136 125
-0.053679 -0.007604 0.382000 127 135 124
-0.051166 -0.007604 0.382000 126 134 123
-0.048526 -0.007584 0.381000 127 135 124
-0.046020 -0.007584 0.381000 126 132 122
-0.043514 -0.007584 0.381000 127 133 123
-0.041116 -0.007604 0.382000 129 132 123
-0.038502 -0.007584 0.381000 127 132 125
-0.035996 -0.007584 0.381000 126 131 124
-0.033490 -0.007584 0.381000 127 133 123
-0.030903 -0.007564 0.380000 125 131 119
-0.028404 -0.007564 0.380000 125 131 119
-0.025904 -0.007564 0.380000 126 132 120
-0.023282 -0.007524 0.378000 126 132 122
-0.020795 -0.007524 0.378000 125 133 122
-0.018261 -0.007504 0.377000 126 132 122
-0.015739 -0.007484 0.376000 128 131 122
-0.013266 -0.007484 0.376000 127 133 123
-0.010793 -0.007484 0.376000 121 135 122
-0.008320 -0.007484 0.376000 127 134 127
-0.005847 -0.007484 0.376000 122 132 124
-0.003365 -0.007464 0.375000 125 132 125
-0.000898 -0.007464 0.375000 122 132 123
0.001569 -0.007464 0.375000 120 130 121
0.004035 -0.007464 0.375000 123 130 122
0.006502 -0.007464 0.375000 121 129 118
0.008968 -0.007464 0.375000 120 128 117
0.011435 -0.007464 0.375000 122 130 119
0.013864 -0.007444 0.374000 121 129 118
0.016280 -0.007424 0.373000 122 130 119
0.018684 -0.007405 0.372000 121 129 116
0.021130 -0.007405 0.372000 123 131 120
0.023577 -0.007405 0.372000 123 131 120
0.025954 -0.007385 0.371000 123 130 122
0.028394 -0.007385 0.371000 123 130 122
0.030835 -0.007385 0.371000 124 132 121
0.033275 -0.007385 0.371000 125 133 122
0.035715 -0.007385 0.371000 125 133 122
0.038052 -0.007365 0.370000 123 133 124
0.040486 -0.007365 0.370000 123 133 124
0.042920 -0.007365 0.370000 124 134 125
0.045231 -0.007345 0.369000 123 133 124
0.047658 -0.007345 0.369000 122 132 123
0.050085 -0.007345 0.369000 122 132 123
0.052512 -0.007345 0.369000 122 132 124
0.054790 -0.007325 0.368000 122 133 125
0.057211 -0.007325 0.368000 122 132 124
0.059631 -0.007325 0.368000 121 131 123
0.062052 -0.007325 0.368000 123 133 125
0.064472 -0.007325 0.368000 123 133 125
-0.088855 -0.005089 0.382000 135 141 131
-0.086116 -0.005076 0.381000 135 141 131
-0.083610 -0.005076 0.381000 134 140 130
-0.080891 -0.005062 0.380000 133 139 129
-0.078392 -0.005062 0.380000 135 141 131
-0.075893 -0.005062 0.380000 132 138 128
-0.072814 -0.005022 0.377000 133 139 129
-0.070334 -0.005022 0.377000 134 140 130
-0.067854 -0.005022 0.377000 133 139 129
-0.065375 -0.005022 0.377000 133 139 129
-0.062728 -0.005009 0.376000 133 141 130
-0.060255 -0.005009 0.376000 133 140 132
-0.057782 -0.005009 0.376000 131 138 130
-0.055309 -0.005009 0.376000 131 138 130
-0.052695 -0.004996 0.375000 129 136 128
-0.050229 -0.004996 0.375000 129 136 128
-0.047635 -0.004982 0.374000 128 135 127
-0.045054 -0.004969 0.373000 127 134 126
-0.042601 -0.004969 0.373000 128 133 126
-0.040255 -0.004982 0.374000 131 134 127
-0.037694 -0.004969 0.373000 129 134 127
-0.035241 -0.004969 0.373000 128 135 127
-0.032699 -0.004956 0.372000 127 135 124
-0.030252 -0.004956 0.372000 128 133 126
-0.027880 -0.004969 0.373000 127 132 125
-0.025427 -0.004969 0.373000 127 132 125
-0.022974 -0.004969 0.373000 127 132 126
-0.020520 -0.004969 0.373000 129 134 127
-0.018018 -0.004956 0.372000 128 135 127
-0.015572 -0.004956 0.372000 125 135 126
-0.013125 -0.004956 0.372000 124 135 127
-0.010678 -0.004956 0.372000 127 134 127
-0.008231 -0.004956 0.372000 128 133 126
-0.005769 -0.004942 0.371000 124 137 127
-0.003320 -0.004929 0.370000 130 135 128
-0.000886 -0.004929 0.370000 128 135 127
0.001548 -0.004929 0.370000 127 135 124
0.003981 -0.004929 0.370000 127 135 124
0.006415 -0.004929 0.370000 125 133 122
0.008849 -0.004929 0.370000 126 134 123
0.011252 -0.004916 0.369000 124 132 121
0.013642 -0.004902 0.368000 122 130 119
0.016062 -0.004902 0.368000 123 129 119
0.018433 -0.004889 0.367000 123 129 119
0.020846 -0.004889 0.367000 123 129 119
0.023134 -0.004863 0.365000 125 131 121
0.025464 -0.004849 0.364000 124 129 122
0.027859 -0.004849 0.364000 125 132 124
0.030253 -0.004849 0.364000 125 132 124
0.032647 -0.004849 0.364000 125 132 124
0.034945 -0.004836 0.363000 125 133 122
0.037332 -0.004836 0.363000 126 133 125
0.039611 -0.004823 0.362000 125 132 124
0.041992 -0.004823 0.362000 125 132 124
0.044373 -0.004823 0.362000 126 133 125
0.046754 -0.004823 0.362000 124 134 125
0.049135 -0.004823 0.362000 125 135 126
0.051516 -0.004823 0.362000 125 135 126
0.053748 -0.004809 0.361000 124 134 126
0.055967 -0.004796 0.360000 124 134 126
0.058335 -0.004796 0.360000 123 133 125
0.060703 -0.004796 0.360000 123 133 125
0.063071 -0.004796 0.360000 124 134 126
0.065438 -0.004796 0.360000 124 134 125
-0.087459 -0.002534 0.376000 138 144 134
-0.084986 -0.002534 0.376000 136 142 132
-0.082294 -0.002527 0.375000 137 143 133
-0.079614 -0.002521 0.374000 136 142 132
-0.076948 -0.002514 0.373000 136 142 132
-0.074495 -0.002514 0.373000 135 141 131
-0.072041 -0.002514 0.373000 135 141 131
-0.069588 -0.002514 0.373000 134 140 130
-0.067134 -0.002514 0.373000 133 139 129
-0.064508 -0.002507 0.372000 134 140 130
-0.062061 -0.002507 0.372000 136 142 132
-0.059614 -0.002507 0.372000 134 141 133
-0.057014 -0.002500 0.371000 134 141 133
-0.054573 -0.002500 0.371000 135 142 134
-0.052133 -0.002500 0.371000 132 142 134
-0.049559 -0.002494 0.370000 133 143 135
-0.047125 -0.002494 0.370000 130 140 132
-0.044571 -0.002487 0.369000 131 138 131
-0.042144 -0.002487 0.369000 131 138 131
-0.039717 -0.002487 0.369000 131 138 130
-0.037290 -0.002487 0.369000 128 135 128
-0.034863 -0.002487 0.369000 127 137 129
-0.032436 -0.002487 0.369000 129 136 129
-0.030008 -0.002487 0.369000 130 137 129
-0.027656 -0.002494 0.370000 129 136 128
-0.025154 -0.002487 0.369000 127 134 126
-0.022666 -0.002480 0.368000 127 134 126
-0.020245 -0.002480 0.368000 128 135 127
-0.017776 -0.002473 0.367000 127 137 128
-0.015362 -0.002473 0.367000 126 136 127
-0.012984 -0.002480 0.368000 131 136 130
-0.010563 -0.002480 0.368000 127 136 133
-0.008143 -0.002480 0.368000 129 139 131
-0.005691 -0.002467 0.366000 126 132 128
-0.003266 -0.002453 0.364000 123 134 128
-0.000869 -0.002446 0.363000 126 137 129
0.001518 -0.002446 0.363000 128 138 130
0.003906 -0.002446 0.363000 127 137 128
0.006294 -0.002446 0.363000 127 137 128
0.008657 -0.002440 0.362000 127 134 126
0.011008 -0.002433 0.361000 126 133 125
0.013345 -0.002426 0.360000 126 133 125
0.015713 -0.002426 0.360000 125 132 124
0.018081 -0.002426 0.360000 124 132 121
0.020449 -0.002426 0.360000 125 131 121
0.022817 -0.002426 0.360000 125 131 121
0.025185 -0.002426 0.360000 125 131 121
0.027552 -0.002426 0.360000 123 130 122
0.029920 -0.002426 0.360000 125 132 124
0.032288 -0.002426 0.360000 125 132 124
0.034560 -0.002419 0.359000 125 132 124
0.036818 -0.002413 0.358000 126 133 125
0.039173 -0.002413 0.358000 125 132 124
0.041528 -0.002413 0.358000 126 133 125
0.043760 -0.002406 0.357000 126 133 125
0.046108 -0.002406 0.357000 127 134 126
0.048456 -0.002406 0.357000 127 134 126
0.050804 -0.002406 0.357000 128 135 127
0.053003 -0.002399 0.356000 128 135 127
0.055345 -0.002399 0.356000 125 135 126
0.057687 -0.002399 0.356000 126 136 127
0.060028 -0.002399 0.356000 127 137 128
0.062370 -0.002399 0.356000 125 135 126
0.064711 -0.002399 0.356000 124 134 123
0.066865 -0.002392 0.355000 124 134 125
0.068810 -0.002379 0.353000 125 135 127
-0.086064 -0.000058 0.370000 139 142 135
-0.083630 -0.000058 0.370000 140 143 136
-0.081196 -0.000058 0.370000 141 144 137
-0.078763 -0.000058 0.370000 139 144 137
-0.076123 -0.000058 0.369000 140 145 138
-0.073696 -0.000058 0.369000 138 145 137
-0.070689 -0.000057 0.366000 137 144 136
-0.068282 -0.000057 0.366000 136 143 135
-0.065875 -0.000057 0.366000 134 141 133
-0.063467 -0.000057 0.366000 134 141 133
-0.061060 -0.000057 0.366000 135 142 134
-0.058492 -0.000057 0.365000 133 141 130
-0.056092 -0.000057 0.365000 133 140 132
-0.053691 -0.000057 0.365000 132 139 131
-0.051431 -0.000057 0.366000 133 143 135
-0.049023 -0.000057 0.366000 134 144 136
-0.046616 -0.000057 0.366000 132 142 134
-0.044088 -0.000057 0.365000 133 143 135
-0.041687 -0.000057 0.365000 134 144 136
-0.039286 -0.000057 0.365000 133 142 137
-0.036885 -0.000057 0.365000 132 141 136
-0.034579 -0.000057 0.366000 131 140 137
-0.032172 -0.000057 0.366000 130 139 136
-0.029764 -0.000057 0.366000 132 141 136
-0.027357 -0.000057 0.366000 130 139 134
-0.024950 -0.000057 0.366000 130 139 134
-0.020080 -0.000057 0.365000 128 139 135
-0.017679 -0.000057 0.365000 129 138 135
-0.015279 -0.000057 0.365000 129 140 136
-0.012878 -0.000057 0.365000 126 140 140
-0.003230 -0.000056 0.360000 122 154 167
-0.000860 -0.000056 0.359000 123 141 143
0.001497 -0.000056 0.358000 128 140 138
0.003852 -0.000056 0.358000 128 137 132
0.006207 -0.000056 0.358000 129 139 131
0.008538 -0.000056 0.357000 126 136 127
0.010886 -0.000056 0.357000 126 136 127
0.013197 -0.000056 0.356000 126 136 127
0.015538 -0.000056 0.356000 125 135 126
0.017880 -0.000056 0.356000 127 137 126
0.020222 -0.000056 0.356000 124 134 123
0.022436 -0.000056 0.354000 126 134 123
0.024765 -0.000056 0.354000 126 134 123
0.027093 -0.000056 0.354000 125 133 122
0.029422 -0.000056 0.354000 125 133 122
0.031750 -0.000056 0.354000 125 133 122
0.033886 -0.000055 0.352000 126 133 125
0.036098 -0.000055 0.351000 125 132 124
0.038407 -0.000055 0.351000 126 133 125
0.040716 -0.000055 0.351000 126 133 125
0.043024 -0.000055 0.351000 126 133 125
0.045204 -0.000055 0.350000 126 133 125
0.047506 -0.000055 0.350000 126 133 125
0.049808 -0.000055 0.350000 127 134 126
0.052110 -0.000055 0.350000 128 135 127
0.054412 -0.000055 0.350000 129 136 128
0.056714 -0.000055 0.350000 129 136 128
0.058848 -0.000055 0.349000 128 135 127
0.061143 -0.000055 0.349000 128 135 127
0.063439 -0.000055 0.349000 126 136 127
0.065734 -0.000055 0.349000 126 136 127
0.068030 -0.000055 0.349000 126 136 127
-0.084203 0.002326 0.362000 139 142 135
-0.081822 0.002326 0.362000 142 145 138
-0.079221 0.002320 0.361000 140 145 138
-0.076847 0.002320 0.361000 139 146 139
-0.074472 0.002320 0.361000 140 147 140
-0.072098 0.002320 0.361000 139 146 139
-0.069724 0.002320 0.361000 139 146 138
-0.067349 0.002320 0.361000 137 147 139
-0.064975 0.002320 0.361000 136 146 137
-0.062600 0.002320 0.361000 134 144 135
-0.060393 0.002326 0.362000 134 144 135
-0.058012 0.002326 0.362000 134 141 133
-0.055631 0.002326 0.362000 134 141 133
-0.053249 0.002326 0.362000 133 140 132
-0.051009 0.002333 0.363000 134 141 134
-0.048755 0.002339 0.364000 133 143 134
-0.046361 0.002339 0.364000 137 142 138
-0.043967 0.002339 0.364000 137 142 136
-0.041459 0.002333 0.363000 132 145 136
-0.039071 0.002333 0.363000 131 142 138
0.001468 0.002255 0.351000 123 139 136
0.003777 0.002255 0.351000 127 139 139
0.006086 0.002255 0.351000 129 140 134
0.008394 0.002255 0.351000 126 138 128
0.010703 0.002255 0.351000 126 136 127
0.012974 0.002249 0.350000 127 137 128
0.015277 0.002249 0.350000 126 136 127
0.017579 0.002249 0.350000 125 137 127
0.019881 0.002249 0.350000 129 139 130
0.022183 0.002249 0.350000 129 139 128
0.024485 0.002249 0.350000 128 138 127
0.026787 0.002249 0.350000 128 136 125
0.029089 0.002249 0.350000 127 135 124
0.031302 0.002243 0.349000 125 133 122
0.033501 0.002236 0.348000 126 134 123
0.035790 0.002236 0.348000 126 134 123
0.038079 0.002236 0.348000 126 134 123
0.040252 0.002230 0.347000 126 134 123
0.042534 0.002230 0.347000 125 132 124
0.044687 0.002223 0.346000 127 134 126
0.046963 0.002223 0.346000 126 133 125
0.049239 0.002223 0.346000 128 135 127
0.051515 0.002223 0.346000 126 133 125
0.053790 0.002223 0.346000 128 135 127
0.056066 0.002223 0.346000 127 134 126
0.058173 0.002217 0.345000 128 135 127
0.060443 0.002217 0.345000 127 137 128
0.062712 0.002217 0.345000 130 140 131
0.064981 0.002217 0.345000 127 137 128
0.066860 0.002204 0.343000 127 137 128
0.069116 0.002204 0.343000 128 138 129
-0.083040 0.004644 0.357000 141 146 139
-0.080692 0.004644 0.357000 140 145 138
-0.078124 0.004631 0.356000 141 146 139
-0.075783 0.004631 0.356000 141 148 141
-0.073441 0.004631 0.356000 140 147 140
-0.071299 0.004644 0.357000 139 146 139
-0.068372 0.004605 0.354000 137 147 138
-0.066043 0.004605 0.354000 139 149 141
-0.063715 0.004605 0.354000 137 147 139
-0.061560 0.004618 0.355000 136 146 137
-0.059392 0.004631 0.356000 137 147 139
-0.057531 0.004670 0.359000 136 146 138
-0.055323 0.004683 0.360000 135 145 137
-0.052955 0.004683 0.360000 133 143 135
-0.050587 0.004683 0.360000 132 142 134
0.001451 0.004514 0.347000 98 154 181
0.003734 0.004514 0.347000 127 143 143
0.006016 0.004514 0.347000 132 138 134
0.008299 0.004514 0.347000 130 141 133
0.010581 0.004514 0.347000 131 141 133
0.012826 0.004501 0.346000 130 137 129
0.015146 0.004514 0.347000 129 139 130
0.017428 0.004514 0.347000 129 139 130
0.019654 0.004501 0.346000 131 141 132
0.021803 0.004475 0.344000 131 139 128
0.024065 0.004475 0.344000 130 138 127
0.026251 0.004462 0.343000 130 138 127
0.028507 0.004462 0.343000 130 138 127
0.030674 0.004449 0.342000 128 136 125
0.032923 0.004449 0.342000 128 136 125
0.035173 0.004449 0.342000 129 137 126
0.037422 0.004449 0.342000 129 137 126
0.039672 0.004449 0.342000 127 135 124
0.041921 0.004449 0.342000 127 134 126
0.044041 0.004436 0.341000 127 134 126
0.046284 0.004436 0.341000 127 134 126
0.048527 0.004436 0.341000 127 134 126
0.050770 0.004436 0.341000 127 134 126
0.053013 0.004436 0.341000 127 134 126
0.055094 0.004423 0.340000 128 135 127
0.057330 0.004423 0.340000 129 136 128
0.059567 0.004423 0.340000 127 134 126
0.061803 0.004423 0.340000 128 135 127
0.063851 0.004410 0.339000 129 136 128
0.066081 0.004410 0.339000 128 138 129
0.068310 0.004410 0.339000 130 137 129
0.070748 0.004423 0.340000 130 135 128
-0.081644 0.006876 0.351000 140 147 140
-0.079336 0.006876 0.351000 141 146 140
-0.077027 0.006876 0.351000 140 147 140
-0.074505 0.006857 0.350000 140 146 142
-0.072203 0.006857 0.350000 138 147 142
-0.069901 0.006857 0.350000 140 150 142
-0.067599 0.006857 0.350000 140 150 142
-0.065297 0.006857 0.350000 140 149 144
-0.062995 0.006857 0.350000 139 149 141
-0.061040 0.006896 0.352000 138 148 140
0.003669 0.006681 0.341000 99 146 172
0.005912 0.006681 0.341000 125 140 137
0.008131 0.006661 0.340000 128 140 138
0.010367 0.006661 0.340000 131 140 135
0.012604 0.006661 0.340000 130 140 132
0.014840 0.006661 0.340000 132 139 131
0.017076 0.006661 0.340000 133 140 132
0.019313 0.006661 0.340000 133 140 132
0.021549 0.006661 0.340000 132 139 131
0.023785 0.006661 0.340000 133 140 132
0.025945 0.006641 0.339000 133 141 130
0.028175 0.006641 0.339000 132 140 129
0.030405 0.006641 0.339000 130 138 127
0.032538 0.006622 0.338000 132 140 129
0.034761 0.006622 0.338000 131 139 128
0.036985 0.006622 0.338000 131 139 128
0.039208 0.006622 0.338000 130 138 127
0.041431 0.006622 0.338000 130 137 129
0.043654 0.006622 0.338000 128 135 127
0.045741 0.006602 0.337000 129 136 128
0.047958 0.006602 0.337000 127 134 126
0.052391 0.006602 0.337000 128 135 127
0.054446 0.006583 0.336000 128 135 127
0.056656 0.006583 0.336000 128 133 126
0.058866 0.006583 0.336000 129 134 127
0.061076 0.006583 0.336000 129 134 127
0.063286 0.006583 0.336000 129 134 127
-0.080714 0.009082 0.347000 141 147 143
-0.078431 0.009082 0.347000 141 147 143
-0.076149 0.009082 0.347000 142 148 144
-0.073867 0.009082 0.347000 141 147 145
-0.071584 0.009082 0.347000 142 148 144
-0.068903 0.009030 0.345000 140 149 144
-0.066440 0.009004 0.344000 140 150 142
-0.064178 0.009004 0.344000 140 150 142
-0.062095 0.009030 0.345000 140 150 142
-0.059826 0.009030 0.345000 139 149 141
0.005843 0.008820 0.337000 99 149 174
0.008035 0.008794 0.336000 130 141 143
0.010245 0.008794 0.336000 131 141 140
0.012456 0.008794 0.336000 132 141 136
0.014666 0.008794 0.336000 133 143 135
0.016876 0.008794 0.336000 132 142 133
0.019086 0.008794 0.336000 130 140 131
0.021169 0.008742 0.334000 132 139 131
0.023366 0.008742 0.334000 133 140 132
0.025486 0.008716 0.333000 133 140 132
0.027676 0.008716 0.333000 133 140 132
0.029867 0.008716 0.333000 133 140 132
0.032057 0.008716 0.333000 132 139 131
0.034247 0.008716 0.333000 133 141 130
0.036437 0.008716 0.333000 131 139 128
0.038628 0.008716 0.333000 132 140 129
0.040818 0.008716 0.333000 131 138 130
0.042879 0.008690 0.332000 131 138 130
0.045063 0.008690 0.332000 131 138 130
-0.079551 0.011203 0.342000 143 152 149
-0.077301 0.011203 0.342000 142 151 148
-0.075052 0.011203 0.342000 140 149 146
-0.072589 0.011170 0.341000 144 150 148
-0.070347 0.011170 0.341000 143 149 145
-0.067904 0.011137 0.340000 141 150 145
-0.065668 0.011137 0.340000 140 151 143
-0.063431 0.011137 0.340000 139 148 143
-0.061195 0.011137 0.340000 140 149 146
0.007940 0.010875 0.332000 107 152 175
0.010093 0.010842 0.331000 132 141 136
0.012233 0.010810 0.330000 129 141 137
0.014404 0.010810 0.330000 132 142 133
0.016574 0.010810 0.330000 132 142 134
0.018745 0.010810 0.330000 133 143 135
0.020915 0.010810 0.330000 130 140 132
0.023086 0.010810 0.330000 134 141 134
0.025180 0.010777 0.329000 133 140 132
0.027344 0.010777 0.329000 134 141 133
0.029508 0.010777 0.329000 134 141 133
0.031768 0.010810 0.330000 134 141 133
-0.078388 0.013257 0.337000 146 155 152
-0.076397 0.013296 0.338000 144 153 150
-0.073955 0.013257 0.337000 145 154 151
-0.071738 0.013257 0.337000 144 153 150
-0.069521 0.013257 0.337000 143 152 149
-0.066706 0.013139 0.334000 140 149 146
-0.064509 0.013139 0.334000 140 149 144
-0.062312 0.013139 0.334000 143 152 149
-0.059935 0.013100 0.333000 140 149 146
-0.057918 0.013139 0.334000 144 153 150
0.010002 0.012903 0.328000 117 154 173
0.012122 0.012864 0.327000 133 142 141
0.014273 0.012864 0.327000 135 140 136
-0.077225 0.015246 0.332000 145 154 151
-0.075041 0.015246 0.332000 146 155 152
-0.072638 0.015200 0.331000 145 154 153
-0.070461 0.015200 0.331000 145 154 153
-0.068284 0.015200 0.331000 145 154 153
-0.065907 0.015154 0.330000 145 154 153
-0.063736 0.015154 0.330000 142 151 150
-0.061566 0.015154 0.330000 144 153 152
-0.059215 0.015108 0.329000 141 150 147
-0.056878 0.015062 0.328000 143 152 149
-0.054554 0.015016 0.327000 143 152 151
-0.052082 0.014924 0.325000 142 152 151
-0.076294 0.017221 0.328000 147 156 153
-0.074137 0.017221 0.328000 147 156 155
-0.071760 0.017169 0.327000 145 154 153
-0.069609 0.017169 0.327000 145 154 153
-0.067046 0.017064 0.325000 147 156 155
-0.064908 0.017064 0.325000 147 156 155
-0.062577 0.017011 0.324000 145 155 154
-0.060446 0.017011 0.324000 145 154 153
-0.058315 0.017011 0.324000 142 151 150
-0.056011 0.016959 0.323000 143 152 149
-0.053719 0.016906 0.322000 143 152 151
-0.051601 0.016906 0.322000 142 152 151
-0.075131 0.019085 0.323000 148 157 156
-0.073007 0.019085 0.323000 148 157 156
-0.070663 0.019026 0.322000 147 156 155
-0.068545 0.019026 0.322000 149 154 157
-0.066427 0.019026 0.322000 147 155 157
-0.064109 0.018967 0.321000 147 157 158
-0.061998 0.018967 0.321000 146 158 158
-0.059700 0.018908 0.320000 145 157 155
-0.057595 0.018908 0.320000 146 156 155
-0.055490 0.018908 0.320000 142 152 151
-0.053219 0.018849 0.319000 145 155 154
-0.051121 0.018849 0.319000 143 154 150
-0.048869 0.018790 0.318000 143 153 152
-0.074433 0.021014 0.320000 149 157 159
-0.072103 0.020948 0.319000 149 157 159
-0.069785 0.020883 0.318000 153 161 163
-0.067693 0.020883 0.318000 150 160 161
-0.065189 0.020751 0.316000 148 158 159
-0.063111 0.020751 0.316000 146 158 158
-0.060839 0.020686 0.315000 145 157 157
-0.058767 0.020686 0.315000 145 157 157
-0.056695 0.020686 0.315000 146 158 158
-0.054450 0.020620 0.314000 147 159 157
-0.052385 0.020620 0.314000 146 156 155
-0.072805 0.022615 0.313000 151 159 162
-0.070747 0.022615 0.313000 151 159 162
-0.068688 0.022615 0.313000 149 157 160
-0.066629 0.022615 0.313000 148 158 159
-0.064570 0.022615 0.313000 147 161 161
0.030933 0.009460 0.338273 162 159 154
0.032145 0.013388 0.331149 163 160 153
0.030986 -0.010284 0.382671 152 152 144
0.028207 0.005738 0.350109 164 161 154
0.027736 0.006991 0.347438 164 161 154
0.027260 0.008248 0.344756 164 161 156
0.026777 0.009509 0.342063 163 160 155
0.026288 0.010774 0.339359 161 158 151
0.025793 0.012043 0.336645 165 162 155
0.024554 0.012846 0.334470 167 164 157
0.024050 0.014121 0.331739 161 161 153
0.029796 -0.008491 0.384173 158 155 148
0.027833 -0.008171 0.382569 154 151 144
0.025877 -0.007856 0.380976 158 155 148
0.022951 0.003573 0.357432 165 162 155
0.020998 0.003886 0.355844 160 157 150
0.021307 0.005592 0.352703 164 161 154
0.019356 0.005904 0.351121 160 160 152
0.019649 0.007620 0.347953 164 161 154
0.019930 0.009345 0.344764 164 161 154
0.019458 0.010604 0.342095 165 162 155
0.018981 0.011867 0.339416 164 161 154
0.017764 0.012656 0.337280 162 159 150
0.017277 0.013924 0.334584 161 161 151
0.016784 0.015197 0.331878 164 164 154
0.015560 0.015990 0.329731 165 165 157
0.014337 0.016783 0.327584 163 164 156
0.023127 -0.006989 0.383394 156 153 146
0.013054 0.001458 0.362041 165 160 154
0.011890 0.002213 0.359998 165 162 155
0.012221 0.003915 0.356907 161 161 153
0.013285 0.006101 0.353264 164 161 154
0.013588 0.007821 0.350124 165 162 155
0.012402 0.008590 0.348042 164 164 156
0.011216 0.009359 0.345960 160 160 152
0.010030 0.010128 0.343879 159 160 152
0.009573 0.011383 0.341240 164 166 155
0.009836 0.013129 0.338029 161 163 152
0.008641 0.013904 0.335931 161 162 154
0.008165 0.015171 0.333260 166 167 159
0.007683 0.016441 0.330578 164 165 157
0.006482 0.017220 0.328469 168 169 161
0.006637 -0.000137 0.367163 161 158 151
0.006248 0.001079 0.364648 164 161 154
0.008092 0.003739 0.360558 161 158 151
0.008003 0.006687 0.354907 166 161 155
0.006839 0.007442 0.352864 167 162 156
0.003472 0.006734 0.352449 166 163 156
0.002317 0.007482 0.350422 166 163 156
0.001890 0.008723 0.347841 162 162 154
0.002182 0.010461 0.344689 166 167 159
0.001740 0.011711 0.342081 166 169 160
0.001291 0.012966 0.339462 166 167 159
0.000836 0.014224 0.336832 166 167 159
-0.000337 0.014985 0.334772 167 168 160
-0.001511 0.015746 0.332712 166 167 159
-0.002685 0.016507 0.330652 166 167 159
-0.003858 0.017268 0.328592 167 168 160
-0.004332 0.018538 0.325929 167 168 160
0.006805 -0.015772 0.402040 153 150 145
0.004932 -0.015527 0.400580 158 155 148
0.003852 -0.014827 0.398683 156 153 146
0.002771 -0.014126 0.396787 157 152 146
-0.000158 -0.003507 0.375201 163 160 153
0.002493 -0.000381 0.370719 163 160 151
0.001369 0.000347 0.368746 163 160 151
0.000245 0.001076 0.366773 164 160 151
-0.001622 0.001317 0.365324 164 160 151
-0.002742 0.002044 0.363357 164 161 152
-0.003127 0.003262 0.360855 166 163 156
-0.003518 0.004484 0.358342 164 161 154
-0.003915 0.005710 0.355818 167 162 156
-0.003591 0.007438 0.352733 165 160 154
-0.004727 0.008175 0.350738 167 167 159
-0.005142 0.009413 0.348181 170 173 164
-0.006282 0.010151 0.346181 168 169 161
-0.006707 0.011396 0.343609 167 168 160
-0.007138 0.012644 0.341025 167 168 160
-0.007575 0.013896 0.338430 169 170 162
-0.008724 0.014641 0.336414 168 169 161
-0.009170 0.015900 0.333803 168 169 161
-0.008924 0.017678 0.330581 167 168 160
-0.010082 0.018428 0.328548 164 165 157
-0.011240 0.019179 0.326516 167 168 160
-0.011709 0.020452 0.323867 166 167 159
0.004856 -0.014638 0.403876 158 155 150
0.003779 -0.013940 0.401985 155 152 145
0.002701 -0.013241 0.400094 158 153 147
0.000060 -0.013477 0.399103 153 148 142
-0.001790 -0.013252 0.397678 160 153 147
-0.004397 -0.006691 0.383989 162 159 152
-0.003967 -0.005022 0.381100 159 159 151
-0.002041 -0.002374 0.377190 162 159 152
-0.002392 -0.001172 0.374751 161 161 153
-0.003497 -0.000456 0.372811 162 159 152
-0.004603 0.000261 0.370871 162 158 149
-0.006450 0.000484 0.369452 163 159 150
-0.006813 0.001694 0.366991 167 164 157
-0.007183 0.002908 0.364519 162 162 154
-0.006827 0.004625 0.361498 162 159 152
-0.010129 0.003844 0.361170 164 161 154
-0.011235 0.004560 0.359230 164 161 152
-0.011617 0.005782 0.356737 164 161 152
-0.012725 0.006501 0.354791 166 166 156
-0.013117 0.007729 0.352281 168 170 159
-0.013515 0.008961 0.349760 169 170 162
-0.013919 0.010197 0.347228 170 171 163
-0.015037 0.010922 0.345266 165 166 158
-0.016155 0.011646 0.343304 168 168 160
-0.016571 0.012890 0.340751 168 169 161
-0.016994 0.014138 0.338186 166 167 159
-0.015338 0.016961 0.333802 161 162 154
-0.017166 0.017173 0.332416 165 167 156
-0.018300 0.017907 0.330427 165 166 158
-0.019433 0.018642 0.328438 166 167 159
-0.019201 0.020440 0.325200 168 169 164
-0.005768 -0.014756 0.403192 153 148 142
-0.006817 -0.014076 0.401350 157 152 146
-0.008641 -0.013873 0.399966 158 153 147
-0.010459 -0.013674 0.398593 159 154 148
-0.013039 -0.013960 0.397700 158 153 147
-0.014841 -0.013770 0.396355 157 152 146
-0.007800 -0.006583 0.386899 163 160 153
-0.011139 -0.007357 0.386492 159 156 149
-0.012201 -0.006668 0.384628 162 159 152
-0.014012 -0.006473 0.383266 162 159 154
-0.011668 -0.002117 0.376473 162 157 151
-0.014227 -0.002417 0.375619 163 160 153
-0.015298 -0.001723 0.373738 163 163 155
-0.015635 -0.000525 0.371329 163 160 153
-0.015978 0.000677 0.368909 168 165 158
-0.015599 0.002390 0.365938 167 164 157
-0.016683 0.003092 0.364036 164 161 152
-0.017044 0.004306 0.361583 166 163 154
-0.017412 0.005524 0.359120 169 169 159
-0.018502 0.006231 0.357207 166 167 159
-0.018879 0.007455 0.354727 169 170 162
-0.018554 0.009202 0.351663 166 167 159
-0.019653 0.009914 0.349734 168 169 161
-0.020752 0.010627 0.347805 166 167 159
-0.021151 0.011865 0.345287 167 169 158
-0.021556 0.013107 0.342757 165 166 158
-0.021967 0.014353 0.340217 163 164 156
-0.021694 0.016134 0.337061 169 169 159
-0.022121 0.017391 0.334494 168 169 161
-0.023239 0.018115 0.332532 168 169 161
-0.024357 0.018840 0.330570 168 171 164
-0.025474 0.019564 0.328608 170 172 167
-0.025917 0.020831 0.326014 170 172 167
-0.027038 0.021557 0.324046 166 169 162
-0.026820 0.023375 0.320792 162 165 154
-0.012361 -0.016596 0.407686 156 153 146
-0.011832 -0.014970 0.404988 155 152 145
-0.013636 -0.014785 0.403634 159 154 148
-0.013123 -0.013149 0.400908 156 151 145
-0.014924 -0.012965 0.399560 160 155 149
-0.016719 -0.012786 0.398222 161 156 150
-0.017747 -0.012120 0.396419 159 156 149
-0.017258 -0.010468 0.393649 163 160 153
-0.016028 -0.008312 0.390370 161 158 151
-0.015567 -0.006641 0.387552 162 159 152
-0.018114 -0.006959 0.386708 163 158 152
-0.019157 -0.006283 0.384877 164 159 153
-0.019458 -0.005104 0.382536 160 157 150
-0.019765 -0.003920 0.380184 165 162 155
-0.020078 -0.002733 0.377821 165 162 155
-0.021130 -0.002050 0.375974 163 160 153
-0.022183 -0.001368 0.374126 165 162 155
-0.021054 0.000854 0.370667 165 162 155
-0.021392 0.002058 0.368261 167 164 155
-0.021737 0.003265 0.365843 169 166 157
-0.022805 0.003958 0.363969 165 165 157
-0.023873 0.004650 0.362094 164 165 157
-0.024941 0.005342 0.360219 167 168 160
-0.025300 0.006560 0.357775 164 165 157
-0.025666 0.007782 0.355319 169 170 162
-0.026038 0.009008 0.352853 166 167 159
-0.027116 0.009706 0.350962 168 170 159
-0.027497 0.010938 0.348479 166 168 157
-0.027192 0.012709 0.345388 167 167 159
-0.028968 0.012876 0.344083 168 168 158
-0.029365 0.014118 0.341573 169 170 162
-0.029768 0.015364 0.339052 169 170 162
-0.030858 0.016070 0.337140 169 170 164
-0.031271 0.017322 0.334602 172 173 167
-0.031689 0.018578 0.332054 169 170 165
-0.032114 0.019838 0.329495 169 170 164
-0.033213 0.020551 0.327566 161 162 154
-0.035642 0.020156 0.326929 165 166 158
-0.037397 0.020309 0.325663 167 168 160
-0.036510 0.022688 0.321779 166 168 157
-0.037610 0.023401 0.319849 166 166 156
-0.016601 -0.017076 0.410811 158 153 147
-0.016834 -0.015935 0.408592 157 154 147
-0.017074 -0.014790 0.406363 158 155 148
-0.017319 -0.013641 0.404123 159 156 149
-0.018338 -0.012981 0.402335 159 154 148
-0.019356 -0.012321 0.400548 161 158 151
-0.020375 -0.011660 0.398761 162 159 152
-0.020636 -0.010501 0.396493 162 157 151
-0.020903 -0.009338 0.394215 160 155 149
-0.021177 -0.008171 0.391925 164 161 154
-0.022205 -0.007505 0.390122 162 159 150
-0.023233 -0.006838 0.388318 161 158 149
-0.023519 -0.005663 0.386007 159 155 146
-0.023811 -0.004484 0.383685 164 161 154
-0.024845 -0.003813 0.381870 162 157 151
-0.025879 -0.003143 0.380055 162 158 149
-0.027642 -0.002990 0.378770 164 160 151
-0.027947 -0.001803 0.376426 165 162 153
-0.027535 -0.000090 0.373531 164 161 152
-0.027855 0.001107 0.371160 164 164 156
-0.028182 0.002309 0.368779 166 166 158
-0.029228 0.002987 0.366942 167 168 160
-0.029564 0.004194 0.364544 167 167 159
-0.029906 0.005406 0.362135 166 166 158
-0.030959 0.006088 0.360287 171 171 163
-0.032011 0.006771 0.358440 169 170 162
-0.033064 0.007453 0.356592 166 168 157
-0.034116 0.008135 0.354745 168 169 161
-0.035169 0.008818 0.352898 167 167 159
-0.035533 0.010043 0.350450 169 166 159
-0.035217 0.011818 0.347387 171 171 163
-0.035597 0.013054 0.344912 166 167 159
-0.035982 0.014294 0.342427 168 169 161
-0.037050 0.014986 0.340552 169 170 164
-0.037445 0.016232 0.338050 166 167 161
-0.037846 0.017481 0.335538 166 167 161
-0.037586 0.019293 0.332376 164 165 157
-0.039331 0.019434 0.331123 163 164 156
-0.041069 0.019571 0.329881 165 166 158
-0.042143 0.020267 0.327996 165 166 158
-0.042563 0.021529 0.325450 166 166 156
-0.043640 0.022227 0.323559 168 168 158
-0.044718 0.022926 0.321668 166 168 157
-0.045795 0.023624 0.319777 167 168 160
-0.020016 -0.022123 0.422552 155 148 142
-0.020997 -0.021486 0.420830 159 150 145
-0.020411 -0.019877 0.418252 158 150 147
-0.019836 -0.018259 0.415652 155 150 146
-0.020830 -0.017615 0.413908 157 154 149
-0.021049 -0.016478 0.411719 157 154 149
-0.022046 -0.015832 0.409970 157 154 147
-0.022274 -0.014689 0.407765 158 155 148
-0.023274 -0.014041 0.406011 162 159 152
-0.024273 -0.013393 0.404256 159 156 147
-0.025273 -0.012745 0.402501 161 157 148
-0.024761 -0.011087 0.399792 160 156 147
-0.025014 -0.009928 0.397543 162 158 149
-0.026773 -0.009783 0.396260 157 153 144
-0.027779 -0.009131 0.394495 160 160 150
-0.028041 -0.007965 0.392230 162 159 152
-0.029050 -0.007311 0.390459 161 156 150
-0.029322 -0.006140 0.388178 163 159 150
-0.030334 -0.005484 0.386401 160 157 148
-0.031346 -0.004828 0.384625 164 161 152
-0.032358 -0.004172 0.382848 166 163 156
-0.033371 -0.003516 0.381072 162 159 150
-0.033661 -0.002332 0.378758 164 161 152
-0.033239 -0.000616 0.375891 164 164 154
-0.033545 0.000577 0.373550 167 168 160
-0.034569 0.001241 0.371751 168 169 161
-0.034885 0.002441 0.369394 166 166 158
-0.035206 0.003644 0.367026 167 167 159
-0.036237 0.004312 0.365217 167 169 158
-0.037268 0.004981 0.363407 167 169 158
-0.037601 0.006192 0.361017 169 171 160
-0.038635 0.006862 0.359203 163 163 153
-0.039669 0.007532 0.357388 168 165 158
-0.040703 0.008203 0.355573 169 166 159
-0.040368 0.009975 0.352553 167 168 160
-0.041408 0.010650 0.350728 167 169 158
-0.041770 0.011879 0.348289 171 173 162
-0.042138 0.013113 0.345839 167 168 160
-0.042512 0.014350 0.343378 162 163 155
-0.042892 0.015592 0.340906 165 166 158
-0.043279 0.016837 0.338424 164 166 155
-0.043672 0.018087 0.335930 159 159 149
-0.044730 0.018773 0.334072 166 166 156
-0.046446 0.018890 0.332865 165 165 155
-0.047501 0.019575 0.331012 168 165 156
-0.048557 0.020259 0.329159 169 166 157
-0.049613 0.020943 0.327306 163 160 151
-0.050024 0.022205 0.324780 167 167 159
-0.051083 0.022891 0.322922 172 175 168
-0.051504 0.024159 0.320379 170 172 167
-0.051931 0.025431 0.317826 169 170 164
-0.024120 -0.023816 0.427605 151 151 143
-0.023504 -0.022215 0.425087 154 151 144
-0.023687 -0.021096 0.422967 156 151 145
-0.023093 -0.019481 0.420410 159 154 148
-0.021732 -0.017363 0.417401 156 151 145
-0.024272 -0.017716 0.416541 155 152 145
-0.026027 -0.017579 0.415260 156 153 146
-0.027775 -0.017446 0.413991 157 154 147
-0.028750 -0.016814 0.412280 159 156 149
-0.029725 -0.016182 0.410568 158 155 148
-0.029939 -0.015043 0.408394 155 152 143
-0.030917 -0.014409 0.406677 161 156 150
-0.030385 -0.012753 0.404012 159 154 148
-0.030618 -0.011602 0.401804 161 156 150
-0.031605 -0.010962 0.400071 158 153 147
-0.031847 -0.009805 0.397848 164 159 153
-0.032837 -0.009163 0.396109 160 155 149
-0.033828 -0.008521 0.394371 162 158 149
-0.034818 -0.007879 0.392632 162 159 150
-0.035808 -0.007237 0.390894 160 160 148
-0.036799 -0.006595 0.389155 164 164 154
-0.037062 -0.005424 0.386893 160 161 153
-0.038056 -0.004780 0.385150 158 160 149
-0.039049 -0.004136 0.383406 162 162 152
-0.039325 -0.002957 0.381122 166 168 157
-0.039607 -0.001774 0.378827 166 168 157
-0.039896 -0.000587 0.376522 165 166 158
-0.040190 0.000604 0.374206 167 168 160
-0.040491 0.001800 0.371878 164 165 157
-0.040798 0.002999 0.369540 169 170 162
-0.041810 0.003655 0.367764 165 167 156
-0.042822 0.004311 0.365987 165 168 157
-0.043834 0.004967 0.364210 166 168 157
-0.044846 0.005623 0.362434 166 166 156
-0.045172 0.006835 0.360063 168 165 156
-0.046187 0.007493 0.358281 170 170 162
-0.047203 0.008151 0.356499 164 165 157
-0.047541 0.009370 0.354106 168 169 161
-0.047885 0.010594 0.351703 168 168 160
-0.048906 0.011256 0.349910 167 168 160
-0.047924 0.013619 0.346236 165 166 158
-0.049619 0.013718 0.345059 162 164 153
-0.049985 0.014956 0.342617 165 165 155
-0.050358 0.016197 0.340165 164 166 155
-0.051391 0.016868 0.338350 164 164 154
-0.052425 0.017538 0.336535 168 168 158
-0.053459 0.018208 0.334720 167 167 157
-0.054493 0.018878 0.332906 169 169 159
-0.055527 0.019549 0.331091 168 169 161
-0.055921 0.020804 0.328600 174 177 170
-0.056958 0.021476 0.326780 171 174 167
-0.057361 0.022738 0.324273 171 172 166
-0.057140 0.024595 0.321062 168 169 163
-0.056931 0.026460 0.317830 171 172 164
-0.059657 0.027227 0.314844 173 174 166
-0.026984 -0.022354 0.427599 155 150 144
-0.028725 -0.022231 0.426338 155 150 144
-0.028114 -0.020616 0.423820 156 151 145
-0.029257 -0.018870 0.420018 158 155 148
-0.030992 -0.018750 0.418768 154 151 144
-0.031952 -0.018128 0.417084 157 152 146
-0.032911 -0.017506 0.415400 158 153 147
-0.033871 -0.016884 0.413716 160 155 149
-0.034070 -0.015750 0.411571 158 153 147
-0.034275 -0.014611 0.409416 159 154 148
-0.035241 -0.013985 0.407721 161 156 150
-0.035456 -0.012840 0.405549 161 156 150
-0.035396 -0.008858 0.398474 162 158 149
-0.037116 -0.008748 0.397251 161 157 148
-0.039564 -0.009172 0.396543 162 159 150
-0.040536 -0.008542 0.394838 164 161 152
-0.041508 -0.007912 0.393132 165 162 155
-0.041754 -0.006747 0.390905 163 163 155
-0.042006 -0.005578 0.388668 161 161 151
-0.042984 -0.004944 0.386951 161 163 152
-0.043962 -0.004310 0.385235 161 163 152
-0.044940 -0.003676 0.383518 161 163 152
-0.045207 -0.002497 0.381254 166 166 156
-0.045481 -0.001314 0.378978 166 167 159
-0.045057 0.000421 0.376133 162 163 155
-0.045346 0.001614 0.373830 168 169 161
-0.046340 0.002259 0.372086 165 166 158
-0.048028 0.002348 0.370918 162 164 153
-0.049019 0.002990 0.369179 162 164 153
-0.049320 0.004191 0.366855 165 165 155
-0.048943 0.005957 0.363928 165 165 155
-0.049943 0.006605 0.362173 166 167 159
-0.051622 0.006688 0.361021 165 167 156
-0.052618 0.007334 0.359271 167 167 157
-0.053615 0.007980 0.357522 165 165 157
-0.054612 0.008626 0.355773 168 168 160
-0.055608 0.009272 0.354023 165 166 158
-0.055941 0.010494 0.351644 161 163 152
-0.055619 0.012296 0.348619 166 166 156
-0.055968 0.013527 0.346213 166 168 157
-0.056322 0.014762 0.343796 166 168 157
