ply
format ascii 1.0
element vertex 1204
property float x
property float y
property float z
property uchar red
property uchar green
property uchar blue
end_header
-0.045336 0.058240 0.227000 165 176 182
-0.043843 0.058240 0.227000 165 176 182
-0.042163 0.057984 0.226000 165 176 182
-0.040677 0.057984 0.226000 165 176 182
-0.037704 0.057984 0.226000 165 174 181
-0.036057 0.057727 0.225000 165 176 182
-0.034577 0.057727 0.225000 164 175 181
-0.033097 0.057727 0.225000 163 172 179
-0.031617 0.057727 0.225000 165 172 180
-0.030137 0.057727 0.225000 165 174 181
-0.028657 0.057727 0.225000 166 175 182
-0.027177 0.057727 0.225000 165 174 179
-0.025697 0.057727 0.225000 163 172 177
-0.022637 0.057470 0.224000 162 169 175
-0.021163 0.057470 0.224000 160 167 173
-0.019690 0.057470 0.224000 162 170 173
-0.018217 0.057470 0.224000 159 169 171
-0.016668 0.057214 0.223000 163 171 174
-0.015202 0.057214 0.223000 161 169 172
-0.013735 0.057214 0.223000 160 165 168
-0.012268 0.057214 0.223000 156 161 164
-0.010801 0.057214 0.223000 163 168 171
-0.009335 0.057214 0.223000 162 166 169
-0.007868 0.057214 0.223000 160 164 167
-0.006430 0.057470 0.224000 158 163 167
-0.004934 0.057214 0.223000 162 170 173
-0.003468 0.057214 0.223000 160 168 170
-0.002001 0.057214 0.223000 162 167 170
-0.000532 0.056957 0.222000 154 162 165
0.000929 0.056957 0.222000 157 162 165
0.002389 0.056957 0.222000 157 161 162
0.003849 0.056957 0.222000 155 156 158
0.005309 0.056957 0.222000 159 159 161
0.006769 0.056957 0.222000 157 157 159
0.008230 0.056957 0.222000 159 159 159
0.009646 0.056701 0.221000 159 159 159
0.011100 0.056701 0.221000 157 157 157
0.012553 0.056701 0.221000 160 160 160
0.014007 0.056701 0.221000 159 159 157
0.015461 0.056701 0.221000 158 158 158
0.016914 0.056701 0.221000 158 158 158
0.018368 0.056701 0.221000 157 157 157
0.019821 0.056701 0.221000 158 158 158
0.021275 0.056701 0.221000 159 159 159
0.022729 0.056701 0.221000 156 158 157
0.024182 0.056701 0.221000 156 157 159
0.025520 0.056444 0.220000 157 159 158
-0.067434 0.059471 0.226000 170 179 184
-0.065947 0.059471 0.226000 168 177 184
-0.064461 0.059471 0.226000 168 177 184
-0.062695 0.059208 0.225000 168 177 184
-0.061216 0.059208 0.225000 169 178 185
-0.057997 0.058945 0.224000 170 181 187
-0.056523 0.058945 0.224000 167 178 184
-0.055050 0.058945 0.224000 167 178 184
-0.053577 0.058945 0.224000 169 180 186
-0.052103 0.058945 0.224000 169 180 186
-0.050856 0.059208 0.225000 166 177 183
-0.049376 0.059208 0.225000 167 178 184
-0.048109 0.059471 0.226000 166 177 183
-0.046623 0.059471 0.226000 167 178 184
-0.044936 0.059208 0.225000 166 177 183
-0.043457 0.059208 0.225000 162 173 179
-0.041977 0.059208 0.225000 166 177 183
-0.040317 0.058945 0.224000 164 175 181
-0.038843 0.058945 0.224000 166 177 183
-0.037370 0.058945 0.224000 165 176 182
-0.035736 0.058682 0.223000 164 175 181
-0.034270 0.058682 0.223000 164 175 181
-0.032803 0.058682 0.223000 164 173 180
-0.031336 0.058682 0.223000 162 171 178
-0.029869 0.058682 0.223000 166 173 179
-0.028275 0.058419 0.222000 165 174 179
-0.026815 0.058419 0.222000 164 173 178
-0.025355 0.058419 0.222000 166 175 180
-0.023895 0.058419 0.222000 162 171 176
-0.022434 0.058419 0.222000 166 175 180
-0.020974 0.058419 0.222000 163 173 175
-0.019514 0.058419 0.222000 160 170 172
-0.018054 0.058419 0.222000 159 167 170
-0.016519 0.058155 0.221000 162 170 173
-0.015065 0.058155 0.221000 162 170 173
-0.012158 0.058155 0.221000 159 167 170
-0.010704 0.058155 0.221000 159 164 168
-0.009251 0.058155 0.221000 160 163 168
-0.007797 0.058155 0.221000 161 166 170
-0.004890 0.058155 0.221000 162 167 170
-0.003436 0.058155 0.221000 159 164 167
-0.001983 0.058155 0.221000 163 168 171
-0.000529 0.058155 0.221000 160 165 168
0.000924 0.058155 0.221000 157 165 167
0.002378 0.058155 0.221000 157 165 167
0.003814 0.057892 0.220000 157 161 164
0.005261 0.057892 0.220000 158 157 162
0.006708 0.057892 0.220000 158 158 160
0.008118 0.057629 0.219000 158 158 160
0.009559 0.057629 0.219000 158 158 160
0.010999 0.057629 0.219000 159 159 161
0.012383 0.057366 0.218000 157 157 157
0.013880 0.057629 0.219000 157 157 155
0.015321 0.057629 0.219000 159 159 159
0.016761 0.057629 0.219000 159 159 159
0.018202 0.057629 0.219000 158 158 158
0.019552 0.057366 0.218000 159 159 159
-0.066538 0.060150 0.223000 169 178 185
-0.065072 0.060150 0.223000 172 181 188
-0.063890 0.060419 0.224000 168 177 184
-0.062417 0.060419 0.224000 169 178 185
-0.060671 0.060150 0.223000 172 181 188
-0.059205 0.060150 0.223000 167 178 184
-0.057738 0.060150 0.223000 169 180 186
-0.056271 0.060150 0.223000 168 179 185
-0.054804 0.060150 0.223000 167 180 186
-0.053098 0.059880 0.222000 166 177 183
-0.051871 0.060150 0.223000 170 181 187
-0.049157 0.060419 0.224000 165 176 182
-0.047683 0.060419 0.224000 165 176 182
-0.046210 0.060419 0.224000 167 178 184
-0.044537 0.060150 0.223000 168 179 185
-0.043263 0.060419 0.224000 166 177 183
-0.041603 0.060150 0.223000 167 178 184
-0.040317 0.060419 0.224000 166 177 183
-0.038670 0.060150 0.223000 166 177 183
-0.037203 0.060150 0.223000 168 179 185
-0.035576 0.059880 0.222000 165 176 182
-0.034116 0.059880 0.222000 164 175 181
-0.032509 0.059610 0.221000 162 173 179
-0.031055 0.059610 0.221000 162 173 179
-0.029601 0.059610 0.221000 161 170 175
-0.028148 0.059610 0.221000 165 172 178
-0.026573 0.059341 0.220000 164 171 177
-0.025126 0.059341 0.220000 166 173 179
-0.023679 0.059341 0.220000 167 174 180
-0.022232 0.059341 0.220000 167 174 180
-0.020785 0.059341 0.220000 162 171 176
-0.019250 0.059071 0.219000 164 173 178
-0.017810 0.059071 0.219000 163 173 175
-0.016369 0.059071 0.219000 159 167 170
-0.014929 0.059071 0.219000 159 167 170
-0.013489 0.059071 0.219000 165 170 174
-0.012048 0.059071 0.219000 161 169 172
-0.010559 0.058801 0.218000 159 167 170
-0.009167 0.059071 0.219000 161 166 170
-0.007727 0.059071 0.219000 160 165 169
-0.006286 0.059071 0.219000 161 166 170
-0.004846 0.059071 0.219000 160 165 168
-0.003390 0.058801 0.218000 160 165 168
-0.001956 0.058801 0.218000 162 167 170
-0.000522 0.058801 0.218000 155 163 165
0.000912 0.058801 0.218000 159 167 169
0.002346 0.058801 0.218000 162 167 170
0.003780 0.058801 0.218000 157 162 165
0.005213 0.058801 0.218000 160 161 165
0.006647 0.058801 0.218000 159 160 164
0.008044 0.058531 0.217000 158 159 161
0.009471 0.058531 0.217000 158 158 160
0.010899 0.058531 0.217000 160 160 162
0.012326 0.058531 0.217000 158 158 160
0.013753 0.058531 0.217000 160 160 160
0.015181 0.058531 0.217000 158 158 158
-0.066240 0.061341 0.222000 171 182 188
-0.064780 0.061341 0.222000 170 181 187
-0.063035 0.061065 0.221000 168 179 185
-0.061581 0.061065 0.221000 170 181 187
-0.060127 0.061065 0.221000 167 178 184
-0.058674 0.061065 0.221000 168 179 185
-0.057220 0.061065 0.221000 168 179 185
-0.055514 0.060789 0.220000 170 181 187
-0.054067 0.060789 0.220000 169 180 186
-0.052620 0.060789 0.220000 169 180 186
-0.050940 0.060512 0.219000 168 179 185
-0.049500 0.060512 0.219000 169 180 186
-0.048498 0.061065 0.221000 168 179 185
-0.047258 0.061341 0.222000 167 178 184
-0.045385 0.060789 0.220000 166 177 183
-0.042491 0.060789 0.220000 167 178 184
-0.036703 0.060789 0.220000 168 179 185
-0.035416 0.061065 0.221000 167 176 183
-0.033655 0.060512 0.219000 165 174 181
-0.032067 0.060236 0.218000 167 174 182
-0.030633 0.060236 0.218000 165 172 180
-0.029200 0.060236 0.218000 163 170 176
-0.027766 0.060236 0.218000 166 173 179
-0.026332 0.060236 0.218000 166 173 179
-0.024898 0.060236 0.218000 164 171 177
-0.023464 0.060236 0.218000 166 173 179
-0.022131 0.060512 0.219000 165 172 178
-0.020596 0.060236 0.218000 164 171 177
-0.019162 0.060236 0.218000 166 175 180
-0.017729 0.060236 0.218000 165 174 179
-0.016220 0.059960 0.217000 163 170 176
-0.014793 0.059960 0.217000 163 170 176
-0.013365 0.059960 0.217000 161 168 174
-0.011938 0.059960 0.217000 165 170 174
-0.010511 0.059960 0.217000 158 163 167
-0.009083 0.059960 0.217000 161 169 172
-0.007656 0.059960 0.217000 159 167 170
-0.006229 0.059960 0.217000 161 166 170
-0.004802 0.059960 0.217000 162 167 170
-0.003374 0.059960 0.217000 160 165 168
-0.001947 0.059960 0.217000 161 166 169
-0.000517 0.059683 0.216000 161 166 169
0.000903 0.059683 0.216000 161 166 169
0.002324 0.059683 0.216000 160 165 168
0.003745 0.059683 0.216000 161 166 169
0.005166 0.059683 0.216000 157 161 164
0.006586 0.059683 0.216000 160 164 167
0.007970 0.059407 0.215000 157 161 162
0.009384 0.059407 0.215000 156 160 161
-0.065643 0.062237 0.220000 172 183 189
-0.064196 0.062237 0.220000 169 180 186
-0.062749 0.062237 0.220000 172 183 189
-0.061302 0.062237 0.220000 169 180 186
-0.059583 0.061954 0.219000 171 182 188
-0.058143 0.061954 0.219000 169 180 186
-0.056702 0.061954 0.219000 171 180 187
-0.055009 0.061671 0.218000 170 179 186
-0.053576 0.061671 0.218000 167 178 184
-0.052142 0.061671 0.218000 171 182 188
-0.050708 0.061671 0.218000 167 178 184
-0.049048 0.061388 0.217000 168 179 185
-0.047621 0.061388 0.217000 167 178 184
-0.044766 0.061388 0.217000 167 178 184
-0.043339 0.061388 0.217000 169 180 186
-0.041911 0.061388 0.217000 166 177 183
-0.040484 0.061388 0.217000 168 179 185
-0.036202 0.061388 0.217000 167 178 184
-0.034935 0.061671 0.218000 167 178 184
-0.033348 0.061388 0.217000 166 177 183
-0.031920 0.061388 0.217000 165 176 182
-0.030352 0.061105 0.216000 166 173 181
-0.028932 0.061105 0.216000 164 171 179
-0.027384 0.060822 0.215000 163 170 178
-0.025969 0.060822 0.215000 165 172 180
-0.024555 0.060822 0.215000 164 171 179
-0.023249 0.061105 0.216000 167 174 180
-0.021828 0.061105 0.216000 165 172 178
-0.020407 0.061105 0.216000 165 172 178
-0.018987 0.061105 0.216000 165 172 178
-0.017485 0.060822 0.215000 165 174 179
-0.016070 0.060822 0.215000 164 171 177
-0.014656 0.060822 0.215000 162 169 175
-0.013242 0.060822 0.215000 163 170 176
-0.011828 0.060822 0.215000 163 168 172
-0.010365 0.060539 0.214000 163 168 172
-0.008958 0.060539 0.214000 160 168 171
-0.007550 0.060539 0.214000 159 167 170
-0.006143 0.060539 0.214000 162 167 171
-0.004735 0.060539 0.214000 163 167 170
-0.003328 0.060539 0.214000 161 165 168
-0.001920 0.060539 0.214000 159 163 166
-0.000512 0.060539 0.214000 161 162 164
0.000895 0.060539 0.214000 162 166 167
0.002292 0.060257 0.213000 163 167 170
0.003693 0.060257 0.213000 161 166 169
-0.065047 0.063106 0.218000 170 181 187
-0.063321 0.062817 0.217000 173 184 190
-0.062179 0.063106 0.218000 173 184 190
-0.060466 0.062817 0.217000 172 183 189
-0.059039 0.062817 0.217000 171 182 188
-0.057612 0.062817 0.217000 172 181 188
-0.055925 0.062527 0.216000 172 181 188
-0.054505 0.062527 0.216000 173 182 189
-0.053084 0.062527 0.216000 171 182 188
-0.051663 0.062527 0.216000 171 182 188
-0.050010 0.062238 0.215000 172 183 189
-0.048596 0.062238 0.215000 173 184 190
-0.047182 0.062238 0.215000 168 179 185
-0.045768 0.062238 0.215000 170 181 187
-0.044353 0.062238 0.215000 171 182 188
-0.043139 0.062527 0.216000 169 180 186
-0.041718 0.062527 0.216000 167 178 184
-0.040111 0.062238 0.215000 167 178 184
-0.038517 0.061948 0.214000 168 179 185
-0.037109 0.061948 0.214000 168 179 185
-0.035869 0.062238 0.215000 168 179 185
-0.034454 0.062238 0.215000 165 174 181
-0.033040 0.062238 0.215000 167 178 184
-0.031479 0.061948 0.214000 166 177 183
-0.030071 0.061948 0.214000 165 174 181
-0.028664 0.061948 0.214000 167 174 182
-0.027256 0.061948 0.214000 166 173 181
-0.025849 0.061948 0.214000 165 172 180
-0.024441 0.061948 0.214000 165 172 180
-0.023034 0.061948 0.214000 165 172 180
-0.021626 0.061948 0.214000 165 172 180
-0.020218 0.061948 0.214000 166 173 179
-0.018811 0.061948 0.214000 164 171 177
-0.017322 0.061659 0.213000 167 174 180
-0.015921 0.061659 0.213000 166 173 179
-0.014520 0.061659 0.213000 164 171 177
-0.013119 0.061659 0.213000 166 173 179
-0.011718 0.061659 0.213000 167 175 178
-0.010317 0.061659 0.213000 160 168 171
-0.008916 0.061659 0.213000 163 168 172
-0.007515 0.061659 0.213000 163 168 172
-0.006114 0.061659 0.213000 161 164 169
-0.004713 0.061659 0.213000 161 165 168
-0.003296 0.061369 0.212000 162 166 169
-0.001902 0.061369 0.212000 162 166 169
-0.000508 0.061369 0.212000 163 167 168
-0.064151 0.063653 0.215000 173 184 190
-0.062737 0.063653 0.215000 169 180 186
-0.061323 0.063653 0.215000 173 184 190
-0.059909 0.063653 0.215000 174 185 191
-0.058495 0.063653 0.215000 172 183 189
-0.057081 0.063653 0.215000 169 180 184
-0.055408 0.063357 0.214000 168 179 185
-0.054000 0.063357 0.214000 172 183 189
-0.052593 0.063357 0.214000 169 180 186
-0.051185 0.063357 0.214000 172 182 191
-0.049777 0.063357 0.214000 171 181 190
-0.048370 0.063357 0.214000 172 183 189
-0.046743 0.063061 0.213000 172 183 189
-0.045342 0.063061 0.213000 171 182 186
-0.042740 0.063357 0.214000 168 179 185
-0.041332 0.063357 0.214000 170 180 189
-0.039738 0.063061 0.213000 167 178 184
-0.038337 0.063061 0.213000 168 179 185
-0.036936 0.063061 0.213000 169 180 186
-0.035535 0.063061 0.213000 169 179 188
-0.034134 0.063061 0.213000 168 177 184
-0.032887 0.063357 0.214000 167 176 183
-0.031332 0.063061 0.213000 167 174 182
-0.029931 0.063061 0.213000 168 175 183
-0.028396 0.062765 0.212000 166 173 181
-0.027002 0.062765 0.212000 167 174 182
-0.025607 0.062765 0.212000 164 171 179
-0.024098 0.062469 0.211000 165 172 180
-0.022711 0.062469 0.211000 163 170 178
-0.021323 0.062469 0.211000 163 167 176
-0.019935 0.062469 0.211000 166 171 177
-0.018547 0.062469 0.211000 167 172 178
-0.017159 0.062469 0.211000 162 167 173
-0.015771 0.062469 0.211000 167 172 178
-0.014384 0.062469 0.211000 168 172 181
-0.012996 0.062469 0.211000 167 174 180
-0.011608 0.062469 0.211000 169 174 180
-0.010220 0.062469 0.211000 165 172 178
-0.008832 0.062469 0.211000 161 169 172
-0.007444 0.062469 0.211000 162 167 171
-0.063256 0.064160 0.212000 173 184 190
-0.061862 0.064160 0.212000 171 182 188
-0.060753 0.064463 0.213000 171 182 188
-0.059073 0.064160 0.212000 170 181 187
-0.057679 0.064160 0.212000 174 185 191
-0.056284 0.064160 0.212000 172 182 191
-0.054890 0.064160 0.212000 172 182 191
-0.053495 0.064160 0.212000 174 185 191
-0.052101 0.064160 0.212000 173 184 190
-0.050707 0.064160 0.212000 170 180 189
-0.049312 0.064160 0.212000 174 184 193
-0.047918 0.064160 0.212000 174 184 193
-0.046304 0.063858 0.211000 172 183 189
-0.044916 0.063858 0.211000 172 182 191
-0.043528 0.063858 0.211000 171 181 190
-0.042140 0.063858 0.211000 170 181 187
-0.040753 0.063858 0.211000 171 182 188
-0.039365 0.063858 0.211000 170 181 187
-0.037977 0.063858 0.211000 167 178 184
-0.036589 0.063858 0.211000 169 178 185
-0.035201 0.063858 0.211000 169 178 185
-0.033653 0.063555 0.210000 170 179 186
-0.032426 0.063858 0.211000 169 176 184
-0.031038 0.063858 0.211000 168 175 183
-0.029650 0.063858 0.211000 169 176 184
-0.028262 0.063858 0.211000 168 175 183
-0.026747 0.063555 0.210000 167 174 182
-0.025366 0.063555 0.210000 168 175 183
-0.023984 0.063555 0.210000 166 173 181
-0.022603 0.063555 0.210000 167 174 182
-0.021121 0.063252 0.209000 164 171 179
-0.019746 0.063252 0.209000 163 170 176
-0.018371 0.063252 0.209000 165 170 176
-0.016997 0.063252 0.209000 166 171 177
-0.015697 0.063555 0.210000 165 170 176
-0.014315 0.063555 0.210000 166 171 177
-0.012934 0.063555 0.210000 168 173 179
-0.011553 0.063555 0.210000 165 172 178
-0.062958 0.065247 0.211000 173 184 190
-0.061570 0.065247 0.211000 172 183 189
-0.060182 0.065247 0.211000 170 181 187
-0.058794 0.065247 0.211000 172 181 188
-0.057407 0.065247 0.211000 173 184 190
-0.056019 0.065247 0.211000 171 184 193
-0.054631 0.065247 0.211000 167 180 188
-0.053243 0.065247 0.211000 170 183 191
-0.051855 0.065247 0.211000 170 183 189
-0.050467 0.065247 0.211000 173 183 192
-0.049080 0.065247 0.211000 174 184 193
-0.047466 0.064937 0.210000 172 182 191
-0.046084 0.064937 0.210000 175 185 194
-0.044490 0.064628 0.209000 171 179 190
-0.043116 0.064628 0.209000 171 179 190
-0.038992 0.064628 0.209000 170 181 187
-0.037617 0.064628 0.209000 168 179 185
-0.036242 0.064628 0.209000 170 179 186
-0.035034 0.064937 0.210000 172 179 187
-0.033493 0.064628 0.209000 169 176 184
-0.032118 0.064628 0.209000 170 179 186
-0.030743 0.064628 0.209000 168 177 184
-0.029369 0.064628 0.209000 168 175 183
-0.027860 0.064319 0.208000 169 176 184
-0.026492 0.064319 0.208000 169 176 184
-0.025003 0.064010 0.207000 169 176 184
-0.023756 0.064319 0.208000 167 174 182
-0.022388 0.064319 0.208000 164 171 179
-0.021020 0.064319 0.208000 166 173 181
-0.019557 0.064010 0.207000 162 169 175
-0.018196 0.064010 0.207000 164 171 177
-0.016834 0.064010 0.207000 165 170 176
-0.014179 0.064319 0.208000 164 169 173
-0.062361 0.066004 0.209000 176 187 193
-0.060987 0.066004 0.209000 171 182 188
-0.059612 0.066004 0.209000 173 182 189
-0.058237 0.066004 0.209000 176 183 191
-0.056862 0.066004 0.209000 174 183 190
-0.055488 0.066004 0.209000 174 184 193
-0.054372 0.066320 0.210000 176 186 195
-0.052738 0.066004 0.209000 168 178 187
-0.051364 0.066004 0.209000 175 185 194
-0.049989 0.066004 0.209000 174 183 192
-0.048614 0.066004 0.209000 175 184 193
-0.047014 0.065688 0.208000 174 182 193
-0.045646 0.065688 0.208000 174 182 193
-0.044065 0.065372 0.207000 174 182 193
-0.041342 0.065372 0.207000 171 181 190
-0.039787 0.065056 0.206000 172 182 191
-0.038618 0.065372 0.207000 169 178 187
-0.037257 0.065372 0.207000 171 180 189
-0.036069 0.065688 0.208000 167 177 186
-0.034701 0.065688 0.208000 171 182 188
-0.033333 0.065688 0.208000 171 178 186
-0.031964 0.065688 0.208000 168 179 185
-0.030449 0.065372 0.207000 168 179 185
-0.029088 0.065372 0.207000 170 177 185
-0.027592 0.065056 0.206000 168 175 183
-0.026237 0.065056 0.206000 169 176 184
-0.024882 0.065056 0.206000 167 174 182
-0.023527 0.065056 0.206000 169 176 184
-0.022280 0.065372 0.207000 167 174 182
-0.020919 0.065372 0.207000 164 171 179
-0.060695 0.067057 0.208000 177 186 195
-0.059327 0.067057 0.208000 174 183 192
-0.057958 0.067057 0.208000 173 182 191
-0.056590 0.067057 0.208000 174 182 193
-0.055222 0.067057 0.208000 174 184 193
-0.054113 0.067380 0.209000 174 184 193
-0.052486 0.067057 0.208000 177 187 197
-0.050872 0.066735 0.207000 174 184 194
-0.049511 0.066735 0.207000 174 184 194
-0.048149 0.066735 0.207000 173 183 193
-0.046788 0.066735 0.207000 174 184 193
-0.043852 0.066412 0.206000 174 184 193
-0.042497 0.066412 0.206000 173 183 192
-0.039787 0.066412 0.206000 170 180 190
-0.038432 0.066412 0.206000 173 181 192
-0.037077 0.066412 0.206000 173 181 192
-0.035722 0.066412 0.206000 170 178 189
-0.033012 0.066412 0.206000 170 180 189
-0.031657 0.066412 0.206000 170 180 189
-0.030302 0.066412 0.206000 167 178 184
-0.027324 0.065768 0.204000 167 178 184
-0.060111 0.067768 0.206000 175 183 194
-0.058756 0.067768 0.206000 178 186 197
-0.057401 0.067768 0.206000 177 185 196
-0.056046 0.067768 0.206000 174 184 193
-0.051729 0.067439 0.205000 177 187 196
-0.050381 0.067439 0.205000 176 186 196
-0.049032 0.067439 0.205000 175 188 197
-0.047451 0.067110 0.204000 174 187 196
-0.046110 0.067110 0.204000 171 184 193
-0.044768 0.067110 0.204000 174 184 193
-0.043426 0.067110 0.204000 174 184 193
-0.042084 0.067110 0.204000 173 183 192
-0.040742 0.067110 0.204000 173 183 192
-0.039401 0.067110 0.204000 175 185 194
-0.038059 0.067110 0.204000 172 182 192
-0.036717 0.067110 0.204000 173 183 193
-0.035202 0.066782 0.203000 173 183 192
-0.033867 0.066782 0.203000 168 178 187
-0.032371 0.066453 0.202000 171 179 190
-0.059527 0.068453 0.204000 175 183 196
-0.058471 0.068789 0.205000 175 183 194
-0.056844 0.068453 0.204000 178 188 198
-0.055230 0.068118 0.203000 178 188 197
-0.053895 0.068118 0.203000 176 186 195
-0.052560 0.068118 0.203000 176 186 195
-0.051224 0.068118 0.203000 177 187 196
-0.049889 0.068118 0.203000 177 187 196
-0.048554 0.068118 0.203000 174 184 194
-0.047219 0.068118 0.203000 172 185 194
-0.045884 0.068118 0.203000 176 189 198
-0.044329 0.067782 0.202000 172 185 194
-0.043213 0.068118 0.203000 175 185 194
-0.041878 0.068118 0.203000 175 185 194
-0.039207 0.068118 0.203000 171 180 189
-0.037872 0.068118 0.203000 174 184 194
-0.036357 0.067782 0.202000 170 180 189
-0.035028 0.067782 0.202000 172 182 191
-0.058944 0.069112 0.202000 178 186 197
-0.057615 0.069112 0.202000 175 183 194
-0.056008 0.068770 0.201000 178 186 197
-0.054686 0.068770 0.201000 176 184 195
-0.053364 0.068770 0.201000 178 186 197
-0.052042 0.068770 0.201000 176 184 195
-0.050720 0.068770 0.201000 175 183 194
-0.049398 0.068770 0.201000 177 185 196
-0.048076 0.068770 0.201000 175 185 194
-0.046754 0.068770 0.201000 177 187 196
-0.045431 0.068770 0.201000 172 185 194
-0.044109 0.068770 0.201000 174 186 198
-0.042787 0.068770 0.201000 174 184 194
-0.041465 0.068770 0.201000 176 186 196
-0.038821 0.068770 0.201000 174 183 192
-0.037499 0.068770 0.201000 169 179 188
-0.058360 0.069744 0.200000 176 184 195
-0.057045 0.069744 0.200000 171 179 190
-0.055729 0.069744 0.200000 179 187 198
-0.054414 0.069744 0.200000 176 186 196
-0.053098 0.069744 0.200000 176 184 195
-0.051783 0.069744 0.200000 178 186 197
-0.050467 0.069744 0.200000 178 187 196
-0.049152 0.069744 0.200000 175 183 194
-0.047836 0.069744 0.200000 176 185 194
-0.007869 0.002317 0.281840 172 219 247
-0.008397 0.003555 0.279022 61 102 130
-0.008931 0.004797 0.276192 56 101 130
-0.006220 -0.000339 0.294069 150 173 181
-0.006725 0.000889 0.291297 143 189 215
-0.007917 0.001662 0.289204 143 192 222
-0.009109 0.002435 0.287111 169 219 252
-0.009626 0.003671 0.284317 157 210 241
-0.010009 0.006622 0.277984 48 93 124
-0.011214 0.007403 0.275869 62 106 135
-0.013623 0.008965 0.271640 93 152 186
-0.006813 0.000229 0.298562 163 164 156
-0.007309 0.001457 0.295808 155 181 194
-0.007812 0.002689 0.293044 141 185 210
-0.009001 0.003460 0.290957 138 186 208
-0.010190 0.004230 0.288870 137 188 209
-0.011379 0.005001 0.286783 138 184 208
-0.011897 0.006243 0.283991 138 183 212
-0.013089 0.007016 0.281899 136 187 216
-0.014281 0.007789 0.279806 137 190 221
-0.016797 0.007608 0.279154 157 212 243
-0.019301 0.007418 0.278525 163 222 255
-0.020481 0.008183 0.276454 76 136 172
-0.023619 0.007498 0.276594 49 99 136
-0.026738 0.006801 0.276766 60 107 137
-0.029839 0.006093 0.276971 179 231 253
-0.030991 0.006839 0.274949 177 233 255
-0.028941 0.010042 0.269134 143 192 222
-0.006030 0.001707 0.301695 165 166 160
-0.007213 0.002474 0.299619 167 168 162
-0.007710 0.003708 0.296868 147 183 195
-0.008896 0.004477 0.294787 150 190 216
-0.010762 0.004775 0.293390 24 46 67
-0.012621 0.005068 0.292004 28 42 55
-0.013801 0.005833 0.289933 41 58 78
-0.016321 0.005644 0.289265 112 143 164
-0.018162 0.005926 0.287912 149 189 214
-0.021325 0.005242 0.287995 138 183 212
-0.023147 0.005511 0.286674 140 186 210
-0.024963 0.005777 0.285365 138 190 214
-0.026773 0.006039 0.284066 140 185 208
-0.029879 0.005318 0.284247 138 187 217
-0.031671 0.005568 0.282981 142 191 223
-0.032810 0.006306 0.280981 158 208 241
-0.032665 0.008035 0.277480 58 97 130
-0.029975 0.011761 0.270933 104 135 164
-0.027959 0.015012 0.265083 169 206 233
-0.003165 0.004586 0.302863 167 168 162
-0.005048 0.004890 0.301431 166 167 161
-0.006925 0.005190 0.300010 165 170 164
-0.008111 0.005959 0.297928 147 184 200
-0.009979 0.006253 0.296523 152 187 215
-0.011840 0.006543 0.295129 14 36 50
-0.013695 0.006829 0.293746 19 37 41
-0.015545 0.007111 0.292374 24 35 41
-0.018057 0.006906 0.291711 29 40 42
-0.020556 0.006693 0.291070 30 41 47
-0.023043 0.006472 0.290451 30 40 49
-0.024858 0.006731 0.289139 31 43 55
-0.026667 0.006987 0.287838 40 64 88
-0.029777 0.006253 0.287999 123 155 176
-0.032218 0.006002 0.287462 142 187 208
-0.033351 0.006736 0.285472 147 189 211
-0.033840 0.007970 0.282741 167 206 235
-0.033052 0.010210 0.278504 109 141 164
-0.030369 0.013971 0.271974 52 73 90
-0.028358 0.017251 0.266137 188 215 232
-0.028274 0.019030 0.262538 155 160 163
-0.004070 0.008096 0.301178 164 167 160
-0.005952 0.008395 0.299743 161 172 168
-0.007828 0.008689 0.298319 143 184 206
-0.010379 0.008498 0.297580 76 107 136
-0.012239 0.008782 0.296184 17 37 46
-0.014093 0.009062 0.294798 24 38 41
-0.015941 0.009338 0.293423 25 37 37
-0.018451 0.009122 0.292754 23 42 48
-0.020949 0.008897 0.292108 151 182 200
-0.023434 0.008664 0.291483 131 165 193
-0.025248 0.008918 0.290168 31 58 79
-0.027711 0.008671 0.289582 20 39 53
-0.030162 0.008416 0.289017 26 42 55
-0.031951 0.008653 0.287746 141 181 206
-0.033734 0.008887 0.286485 145 184 213
-0.033580 0.010632 0.283017 62 90 114
-0.032159 0.013398 0.278037 59 68 83
-0.029488 0.017199 0.271513 157 173 186
-0.028122 0.020001 0.266436 174 198 210
-0.028674 0.021281 0.263598 162 168 168
-0.003785 0.010846 0.301592 163 166 159
-0.005670 0.011140 0.300148 147 163 163
-0.007548 0.011430 0.298716 145 185 211
-0.010099 0.011230 0.297966 27 55 79
-0.012638 0.011022 0.297238 17 36 43
-0.013818 0.011786 0.295167 20 33 39
-0.015668 0.012059 0.293784 27 37 39
-0.018179 0.011832 0.293105 22 40 50
-0.020677 0.011597 0.292447 149 184 203
-0.023163 0.011355 0.291811 144 186 208
-0.025637 0.011104 0.291198 144 183 212
-0.028098 0.010845 0.290606 27 57 83
-0.029896 0.011083 0.289315 15 37 50
-0.032335 0.010810 0.288761 146 185 200
-0.032826 0.012056 0.286035 145 190 213
-0.032681 0.013816 0.282562 64 101 127
-0.031270 0.016610 0.277583 53 84 102
-0.029248 0.019935 0.271812 109 142 161
-0.028522 0.022246 0.267493 159 185 198
-0.029075 0.023532 0.264658 165 170 166
-0.004191 0.013120 0.302663 161 164 157
-0.006074 0.013409 0.301217 142 161 167
-0.007951 0.013693 0.299782 144 184 209
-0.010500 0.013481 0.299026 17 41 65
-0.013037 0.013261 0.298292 21 34 42
-0.014217 0.014026 0.296221 25 35 37
-0.015396 0.014791 0.294150 24 43 41
-0.018574 0.014054 0.294150 15 33 47
-0.021071 0.013807 0.293488 142 183 205
-0.023555 0.013553 0.292846 144 184 209
-0.026026 0.013290 0.292227 140 184 211
-0.028486 0.013020 0.291629 25 55 79
-0.030282 0.013252 0.290336 32 55 69
-0.032072 0.013480 0.289054 144 187 206
-0.032567 0.014733 0.286325 148 185 214
-0.032427 0.016507 0.282852 156 193 219
-0.031023 0.019327 0.277878 57 79 102
-0.029644 0.022163 0.272861 62 95 114
-0.028922 0.024492 0.268550 158 181 189
-0.028847 0.026308 0.264962 170 172 171
-0.006478 0.015678 0.302285 157 175 187
-0.008354 0.015956 0.300847 139 186 206
-0.010901 0.015732 0.300086 20 45 67
-0.012761 0.016001 0.298675 27 41 50
-0.014615 0.016265 0.297276 24 39 46
-0.015795 0.017030 0.295205 31 38 46
-0.018305 0.016782 0.294509 28 51 65
-0.021464 0.016017 0.294528 140 187 207
-0.023946 0.015751 0.293881 102 142 168
-0.026416 0.015477 0.293256 158 190 215
-0.028220 0.015709 0.291944 26 50 74
-0.030668 0.015420 0.291357 127 154 175
-0.031811 0.016161 0.289352 146 188 210
-0.032953 0.016902 0.287346 179 216 245
-0.032175 0.019210 0.283147 178 216 239
-0.031416 0.021531 0.278916 54 74 98
-0.029407 0.024917 0.273167 103 132 150
-0.028691 0.027265 0.268859 160 177 184
-0.029249 0.028565 0.266025 170 174 173
-0.006199 0.018447 0.302701 153 181 193
-0.008757 0.018219 0.301912 146 188 210
-0.010625 0.018488 0.300483 30 46 71
-0.013161 0.018246 0.299732 153 184 202
-0.014344 0.019013 0.297656 141 188 208
-0.016861 0.018759 0.296938 149 187 210
-0.019366 0.018497 0.296242 87 123 147
-0.021858 0.018227 0.295568 153 187 212
-0.024338 0.017949 0.294916 26 50 74
-0.026805 0.017663 0.294286 26 38 54
-0.028609 0.017889 0.292970 29 42 51
-0.030406 0.018111 0.291666 154 187 202
-0.032197 0.018330 0.290373 146 187 209
-0.032697 0.019597 0.287644 182 217 247
-0.032565 0.021397 0.284177 89 126 145
-0.031172 0.024265 0.279220 53 74 95
-0.029172 0.027683 0.273480 185 211 226
-0.029092 0.029516 0.269919 159 170 174
0.028207 0.005738 0.350109 164 161 154
0.027736 0.006991 0.347438 164 161 154
0.027260 0.008248 0.344756 164 161 156
0.026777 0.009509 0.342063 163 160 155
-0.000613 0.023474 0.301368 132 141 146
-0.005923 0.021228 0.303122 147 182 201
-0.008481 0.020990 0.302323 157 197 223
-0.010352 0.021255 0.300885 24 42 64
-0.012889 0.021003 0.300124 37 65 79
-0.014744 0.021258 0.298713 136 164 185
-0.017259 0.020992 0.297990 148 184 208
-0.019761 0.020719 0.297288 47 75 97
-0.022252 0.020437 0.296609 21 39 63
-0.024729 0.020147 0.295951 145 186 204
-0.026541 0.020373 0.294617 118 155 181
-0.028997 0.020069 0.293997 25 44 58
-0.030793 0.020286 0.292690 150 185 207
-0.032583 0.020498 0.291394 146 186 211
-0.033084 0.021771 0.288668 122 156 184
-0.031678 0.024652 0.283755 178 209 230
-0.030296 0.027548 0.278798 62 93 114
-0.028939 0.030460 0.273797 186 213 224
-0.028864 0.032308 0.270237 161 169 171
0.022951 0.003573 0.357432 165 162 155
0.020998 0.003886 0.355844 160 157 150
0.021307 0.005592 0.352703 164 161 154
0.019356 0.005904 0.351121 160 160 152
0.019649 0.007620 0.347953 164 161 154
0.019930 0.009345 0.344764 164 161 154
0.019458 0.010604 0.342095 165 162 155
0.018981 0.011867 0.339416 164 161 154
0.017764 0.012656 0.337280 162 159 150
0.017277 0.013924 0.334584 161 161 151
0.016784 0.015197 0.331878 164 164 154
0.015560 0.015990 0.329731 165 165 157
0.014337 0.016783 0.327584 163 164 156
0.013832 0.018064 0.324855 165 166 158
0.012605 0.018859 0.322703 161 162 154
0.012802 0.020638 0.319366 161 162 154
-0.001026 0.025790 0.302459 126 143 150
-0.005649 0.024020 0.303550 145 186 206
-0.008208 0.023773 0.302739 140 186 210
-0.010755 0.023518 0.301950 74 112 135
-0.013290 0.023254 0.301184 15 41 56
-0.015144 0.023503 0.299770 30 42 54
-0.017657 0.023226 0.299041 30 40 49
-0.020157 0.022940 0.298334 26 41 48
-0.022645 0.022647 0.297649 21 39 51
-0.025121 0.022345 0.296986 116 151 171
-0.026931 0.022566 0.295649 54 85 106
-0.029385 0.022250 0.295023 25 46 63
-0.031180 0.022460 0.293714 149 186 205
-0.032326 0.023203 0.291703 149 191 215
-0.032832 0.024484 0.288974 55 87 110
-0.032069 0.026850 0.284790 168 193 215
-0.030692 0.029770 0.279844 56 83 100
-0.029339 0.032706 0.274854 176 200 210
-0.028639 0.035111 0.270561 157 163 161
0.013054 0.001458 0.362041 165 160 154
0.011890 0.002213 0.359998 165 162 155
0.012221 0.003915 0.356907 161 161 153
0.013285 0.006101 0.353264 164 161 154
0.013588 0.007821 0.350124 165 162 155
0.012402 0.008590 0.348042 164 164 156
0.011216 0.009359 0.345960 160 160 152
0.010030 0.010128 0.343879 159 160 152
0.009573 0.011383 0.341240 164 166 155
0.009836 0.013129 0.338029 161 163 152
0.008641 0.013904 0.335931 161 162 154
0.008165 0.015171 0.333260 166 167 159
0.007683 0.016441 0.330578 164 165 157
0.006482 0.017220 0.328469 168 169 161
0.005991 0.018497 0.325771 164 165 157
0.004786 0.019278 0.323656 168 169 161
0.004286 0.020561 0.320942 167 168 160
0.003779 0.021848 0.318216 162 163 155
0.003964 0.023645 0.314869 159 160 152
0.002747 0.024434 0.312732 156 155 150
0.000838 0.024713 0.311218 153 152 148
-0.000376 0.025500 0.309087 150 155 151
-0.001589 0.026287 0.306957 142 145 138
-0.004169 0.026042 0.306102 141 152 154
-0.006735 0.025789 0.305270 139 171 186
-0.008613 0.026048 0.303810 145 183 204
-0.011158 0.025781 0.303016 139 185 209
-0.013020 0.026029 0.301583 139 184 213
-0.015544 0.025748 0.300827 139 183 208
-0.017391 0.025987 0.299422 150 191 213
-0.020553 0.025162 0.299380 94 127 146
-0.023039 0.024856 0.298690 21 42 61
-0.025512 0.024543 0.298021 35 44 59
-0.027322 0.024758 0.296681 30 40 49
-0.029125 0.024968 0.295352 20 42 53
-0.030922 0.025175 0.294034 150 188 209
-0.032713 0.025378 0.292726 140 184 211
-0.033220 0.026664 0.290001 52 79 106
-0.033097 0.028502 0.286545 56 70 79
-0.031087 0.031991 0.280890 159 183 195
-0.029109 0.035501 0.275181 152 171 185
-0.026535 0.039583 0.268680 160 165 161
0.008092 0.003739 0.360558 161 158 151
0.008003 0.006687 0.354907 166 161 155
0.006839 0.007442 0.352864 167 162 156
0.003472 0.006734 0.352449 166 163 156
0.002317 0.007482 0.350422 166 163 156
0.001890 0.008723 0.347841 162 162 154
0.002182 0.010461 0.344689 166 167 159
0.001740 0.011711 0.342081 166 169 160
0.001291 0.012966 0.339462 166 167 159
0.000836 0.014224 0.336832 166 167 159
-0.000337 0.014985 0.334772 167 168 160
-0.001511 0.015746 0.332712 166 167 159
-0.002685 0.016507 0.330652 166 167 159
-0.003858 0.017268 0.328592 167 168 160
-0.004332 0.018538 0.325929 167 168 160
-0.004114 0.020325 0.322647 162 162 154
-0.004603 0.021606 0.319957 168 168 160
-0.005789 0.022374 0.317876 167 166 161
-0.006975 0.023143 0.315794 165 168 161
-0.007477 0.024432 0.313082 161 164 157
-0.007984 0.025725 0.310359 162 164 159
-0.009177 0.026498 0.308267 160 169 168
-0.011044 0.026745 0.306820 152 160 162
-0.012906 0.026988 0.305385 138 149 155
-0.014761 0.027227 0.303961 84 100 113
-0.016610 0.027462 0.302547 141 168 189
-0.018452 0.027693 0.301144 146 184 207
-0.020289 0.027919 0.299753 141 187 210
-0.022776 0.027604 0.299051 140 186 209
-0.025250 0.027281 0.298371 141 189 212
-0.027062 0.027492 0.297023 149 189 214
-0.029515 0.027155 0.296381 111 146 168
-0.031311 0.027355 0.295060 151 189 212
-0.032460 0.028100 0.293044 149 186 212
-0.032970 0.029395 0.290316 157 191 216
-0.032852 0.031246 0.286859 88 125 144
-0.030851 0.034767 0.281213 171 200 216
-0.028881 0.038308 0.275512 158 171 177
-0.027568 0.041311 0.270491 161 166 162
-0.026902 0.043771 0.266164 166 167 159
-0.025635 0.046804 0.261061 164 165 157
-0.025626 0.048725 0.257414 172 173 165
-0.003518 0.004484 0.358342 164 161 154
-0.003915 0.005710 0.355818 167 162 156
-0.003591 0.007438 0.352733 165 160 154
-0.004727 0.008175 0.350738 167 167 159
-0.005142 0.009413 0.348181 170 173 164
-0.006282 0.010151 0.346181 168 169 161
-0.006707 0.011396 0.343609 167 168 160
-0.007138 0.012644 0.341025 167 168 160
-0.007575 0.013896 0.338430 169 170 162
-0.008724 0.014641 0.336414 168 169 161
-0.009170 0.015900 0.333803 168 169 161
-0.008924 0.017678 0.330581 167 168 160
-0.010082 0.018428 0.328548 164 165 157
-0.011240 0.019179 0.326516 167 168 160
-0.011709 0.020452 0.323867 166 167 159
-0.012870 0.021205 0.321828 169 169 161
-0.013347 0.022483 0.319163 168 170 165
-0.013831 0.023766 0.316487 169 174 168
-0.013644 0.025582 0.313161 172 176 175
-0.014817 0.026343 0.311101 166 170 169
-0.015991 0.027104 0.309041 165 171 167
-0.017165 0.027864 0.306981 165 171 169
-0.019003 0.028087 0.305581 166 172 168
-0.020836 0.028306 0.304192 157 166 165
-0.022003 0.029063 0.302143 145 156 162
-0.023826 0.029276 0.300771 98 112 125
-0.026295 0.028939 0.300090 149 171 192
-0.028103 0.029142 0.298745 151 186 208
-0.029904 0.029341 0.297410 145 190 213
-0.031056 0.030088 0.295389 146 190 217
-0.032208 0.030834 0.293367 162 205 239
-0.032723 0.032137 0.290636 144 178 206
-0.032610 0.034002 0.287180 122 129 137
-0.031879 0.036434 0.282982 168 172 171
-0.030538 0.039441 0.278026 161 167 167
-0.031097 0.040772 0.275219 159 165 161
-0.031040 0.042673 0.271664 161 164 155
-0.030995 0.044582 0.268088 157 158 150
-0.030963 0.046499 0.264490 160 161 153
-0.030944 0.048424 0.260870 160 163 154
-0.031545 0.049783 0.257987 166 169 160
-0.031547 0.051722 0.254329 167 170 159
-0.012725 0.006501 0.354791 166 166 156
-0.013117 0.007729 0.352281 168 170 159
-0.013515 0.008961 0.349760 169 170 162
-0.013919 0.010197 0.347228 170 171 163
-0.015037 0.010922 0.345266 165 166 158
-0.016155 0.011646 0.343304 168 168 160
-0.016571 0.012890 0.340751 168 169 161
-0.016994 0.014138 0.338186 166 167 159
-0.015338 0.016961 0.333802 161 162 154
-0.017166 0.017173 0.332416 165 167 156
-0.018300 0.017907 0.330427 165 166 158
-0.019433 0.018642 0.328438 166 167 159
-0.019201 0.020440 0.325200 168 169 164
-0.018982 0.022246 0.321940 170 172 169
-0.019451 0.023524 0.319293 167 171 170
-0.019927 0.024807 0.316636 162 167 163
-0.019068 0.027172 0.312675 159 164 157
-0.019562 0.028467 0.309985 165 168 161
-0.020727 0.029222 0.307942 166 169 162
-0.023212 0.028885 0.307223 166 167 161
-0.024371 0.029636 0.305191 166 167 159
-0.026183 0.029837 0.303832 170 175 168
-0.027990 0.030034 0.302483 174 176 173
-0.029142 0.030780 0.300462 174 178 177
-0.030939 0.030971 0.299130 168 178 180
-0.032087 0.031716 0.297113 122 135 143
-0.033236 0.032461 0.295097 150 167 174
-0.033749 0.033767 0.292374 164 173 172
-0.033635 0.035642 0.288929 164 167 158
-0.034164 0.036958 0.286179 167 170 159
-0.034698 0.038279 0.283418 164 167 160
-0.035862 0.039034 0.281375 158 161 154
-0.037027 0.039789 0.279331 158 161 152
-0.037574 0.041117 0.276549 157 158 152
-0.037513 0.043026 0.273011 154 155 147
-0.038686 0.043787 0.270951 158 161 152
-0.039860 0.044548 0.268891 151 157 147
-0.039824 0.046472 0.265309 156 159 150
-0.018554 0.009202 0.351663 166 167 159
-0.019653 0.009914 0.349734 168 169 161
-0.020752 0.010627 0.347805 166 167 159
-0.021151 0.011865 0.345287 167 169 158
-0.021556 0.013107 0.342757 165 166 158
-0.021967 0.014353 0.340217 163 164 156
-0.021694 0.016134 0.337061 169 169 159
-0.022121 0.017391 0.334494 168 169 161
-0.023239 0.018115 0.332532 168 169 161
-0.024357 0.018840 0.330570 168 171 164
-0.025474 0.019564 0.328608 170 172 167
-0.025917 0.020831 0.326014 170 172 167
-0.027038 0.021557 0.324046 166 169 162
-0.026820 0.023375 0.320792 162 165 154
-0.023952 0.027391 0.314920 165 167 156
-0.026423 0.027035 0.314218 165 166 158
-0.028222 0.027222 0.312878 169 170 162
-0.030672 0.026851 0.312214 165 166 158
-0.031802 0.027584 0.310230 169 170 162
-0.032282 0.028874 0.307570 168 171 162
-0.032768 0.030168 0.304899 171 174 167
-0.033260 0.031467 0.302218 173 178 171
-0.034399 0.032205 0.300218 177 183 179
-0.034901 0.033510 0.297520 170 179 176
-0.036043 0.034251 0.295514 169 174 168
-0.036554 0.035561 0.292800 171 173 162
-0.037700 0.036304 0.290789 171 172 164
-0.038845 0.037046 0.288778 163 166 159
-0.039991 0.037789 0.286767 161 164 155
-0.041137 0.038532 0.284756 159 160 152
-0.041666 0.039854 0.282009 157 158 152
-0.042815 0.040599 0.279993 153 154 146
-0.043963 0.041344 0.277976 156 159 148
-0.044505 0.042674 0.275207 156 159 148
-0.045053 0.044009 0.272428 160 162 151
-0.027116 0.009706 0.350962 168 170 159
-0.027497 0.010938 0.348479 166 168 157
-0.027192 0.012709 0.345388 167 167 159
-0.028968 0.012876 0.344083 168 168 158
-0.029365 0.014118 0.341573 169 170 162
-0.029768 0.015364 0.339052 169 170 162
-0.030858 0.016070 0.337140 169 170 164
-0.031271 0.017322 0.334602 172 173 167
-0.031689 0.018578 0.332054 169 170 165
-0.032114 0.019838 0.329495 169 170 164
-0.033213 0.020551 0.327566 161 162 154
-0.035642 0.020156 0.326929 165 166 158
-0.037397 0.020309 0.325663 167 168 160
-0.036510 0.022688 0.321779 166 168 157
-0.037610 0.023401 0.319849 166 166 156
-0.038056 0.024675 0.317252 165 167 156
-0.039158 0.025389 0.315318 168 170 159
-0.039614 0.026670 0.312704 168 169 161
-0.039433 0.028521 0.309395 174 177 170
-0.039265 0.030381 0.306065 174 179 173
-0.040382 0.031106 0.304103 172 175 168
-0.041500 0.031830 0.302141 163 166 157
-0.041987 0.033130 0.299473 171 173 162
-0.042480 0.034435 0.296794 168 169 161
-0.042980 0.035743 0.294104 173 174 166
-0.043485 0.037055 0.291403 170 171 163
-0.044615 0.037788 0.289420 169 170 162
-0.045746 0.038521 0.287436 167 168 160
-0.047488 0.038666 0.286191 166 168 157
-0.048615 0.039396 0.284213 159 161 150
-0.049136 0.040719 0.281485 165 167 156
-0.049061 0.042639 0.277991 167 169 158
-0.035217 0.011818 0.347387 171 171 163
-0.035597 0.013054 0.344912 166 167 159
-0.035982 0.014294 0.342427 168 169 161
-0.037050 0.014986 0.340552 169 170 164
-0.037445 0.016232 0.338050 166 167 161
-0.037846 0.017481 0.335538 166 167 161
-0.037586 0.019293 0.332376 164 165 157
-0.039331 0.019434 0.331123 163 164 156
-0.041069 0.019571 0.329881 165 166 158
-0.042143 0.020267 0.327996 165 166 158
-0.042563 0.021529 0.325450 166 166 156
-0.043640 0.022227 0.323559 168 168 158
-0.044718 0.022926 0.321668 166 168 157
-0.045795 0.023624 0.319777 167 168 160
-0.045588 0.025470 0.316523 174 175 169
-0.045394 0.027323 0.313247 174 177 170
-0.046483 0.028030 0.311334 168 169 163
-0.047573 0.028736 0.309421 166 167 159
-0.048033 0.030024 0.306805 173 174 166
-0.049126 0.030733 0.304887 173 174 166
-0.049596 0.032027 0.302254 173 175 164
-0.050071 0.033325 0.299611 172 173 165
-0.050553 0.034627 0.296956 169 170 162
-0.051655 0.035341 0.295022 167 169 158
-0.052146 0.036649 0.292351 167 169 158
-0.053252 0.037366 0.290411 166 168 157
-0.054357 0.038083 0.288471 169 169 159
-0.055462 0.038799 0.286531 167 169 158
-0.042138 0.013113 0.345839 167 168 160
-0.042512 0.014350 0.343378 162 163 155
-0.042892 0.015592 0.340906 165 166 158
-0.043279 0.016837 0.338424 164 166 155
-0.043672 0.018087 0.335930 159 159 149
-0.044730 0.018773 0.334072 166 166 156
-0.046446 0.018890 0.332865 165 165 155
-0.047501 0.019575 0.331012 168 165 156
-0.048557 0.020259 0.329159 169 166 157
-0.049613 0.020943 0.327306 163 160 151
-0.050024 0.022205 0.324780 167 167 159
-0.051083 0.022891 0.322922 172 175 168
-0.051504 0.024159 0.320379 170 172 167
-0.051931 0.025431 0.317826 169 170 164
-0.051732 0.027292 0.314566 165 166 160
-0.052803 0.027986 0.312686 171 172 164
-0.053874 0.028681 0.310806 170 171 163
-0.054945 0.029375 0.308926 171 172 164
-0.056636 0.029476 0.307763 168 169 161
-0.057704 0.030169 0.305888 167 169 158
-0.058159 0.031459 0.303285 168 170 159
-0.058010 0.033352 0.299939 168 171 160
-0.058480 0.034652 0.297309 168 170 157
-0.059561 0.035352 0.295412 165 167 154
-0.061242 0.035447 0.294266 169 171 158
-0.049619 0.013718 0.345059 162 164 153
-0.049985 0.014956 0.342617 165 165 155
-0.050358 0.016197 0.340165 164 166 155
-0.051391 0.016868 0.338350 164 164 154
-0.052425 0.017538 0.336535 168 168 158
-0.053459 0.018208 0.334720 167 167 157
-0.054493 0.018878 0.332906 169 169 159
-0.055527 0.019549 0.331091 168 169 161
-0.055921 0.020804 0.328600 174 177 170
-0.056958 0.021476 0.326780 171 174 167
-0.057361 0.022738 0.324273 171 172 166
-0.057140 0.024595 0.321062 168 169 163
-0.056931 0.026460 0.317830 171 172 164
-0.057359 0.027737 0.315280 169 170 162
-0.059657 0.027227 0.314844 173 174 166
-0.060707 0.027907 0.313002 169 170 162
-0.061756 0.028588 0.311160 168 170 159
-0.062805 0.029268 0.309318 169 171 160
-0.063855 0.029948 0.307476 167 167 157
-0.064298 0.031236 0.304898 170 168 156
-0.064748 0.032528 0.302309 170 168 156
-0.065204 0.033824 0.299710 171 169 157
-0.057334 0.015418 0.342019 167 169 158
-0.058347 0.016075 0.340243 165 167 156
-0.059359 0.016731 0.338466 168 168 158
-0.060371 0.017387 0.336690 166 167 159
-0.060744 0.018634 0.334240 173 176 167
-0.061124 0.019886 0.331779 170 173 164
-0.062142 0.020546 0.329992 167 168 160
-0.063790 0.020609 0.328894 168 169 161
-0.064179 0.021866 0.326417 169 170 162
-0.064574 0.023128 0.323929 172 173 165
-0.064975 0.024393 0.321430 172 173 165
-0.064765 0.026268 0.318208 173 174 166
-0.065181 0.027543 0.315682 170 172 161
-0.066215 0.028213 0.313868 170 172 161
-0.067249 0.028884 0.312053 169 171 160
-0.067678 0.030167 0.309505 168 168 156
-0.068715 0.030840 0.307685 168 168 156
-0.069752 0.031512 0.305865 163 163 151
-0.063918 0.016333 0.340919 168 168 158
-0.064277 0.017576 0.338500 168 169 161
-0.065277 0.018224 0.336745 169 170 162
-0.066276 0.018872 0.334990 167 168 160
-0.066648 0.020123 0.332548 169 170 162
-0.068276 0.020169 0.331480 168 169 161
-0.069898 0.020210 0.330423 169 170 162
-0.070275 0.021465 0.327971 169 170 162
-0.071275 0.022113 0.326216 165 166 158
-0.071662 0.023374 0.323747 170 172 161
-0.070835 0.025870 0.319828 172 174 163
-0.070026 0.028377 0.315877 168 170 159
-0.070444 0.029659 0.313353 166 166 154
-0.072069 0.029702 0.312291 171 169 157
-0.073688 0.029741 0.311239 166 166 154
-0.070752 0.018373 0.337549 163 165 154
-0.071736 0.019011 0.335821 167 169 158
-0.072720 0.019649 0.334094 169 170 162
-0.074323 0.019672 0.333067 171 172 164
-0.075304 0.020308 0.331345 170 171 163
-0.075673 0.021563 0.328911 170 171 163
-0.076048 0.022822 0.326467 168 170 159
-0.078208 0.027270 0.317319 169 170 156
-0.079671 0.019682 0.334042 172 174 163
-0.080637 0.020308 0.332347 168 168 156
-0.080998 0.021563 0.329933 170 170 158
-0.081967 0.022191 0.328233 164 164 152
-0.083534 0.022186 0.327263 169 169 157
-0.083904 0.023447 0.324832 167 168 154
-0.085297 0.020845 0.332709 166 168 155
-0.086250 0.021463 0.331036 168 170 157
-0.087798 0.021440 0.330096 167 169 156
-0.070251 0.057777 0.349449 161 162 148
-0.071871 0.057719 0.348307 165 166 152
-0.073486 0.057656 0.347175 163 165 151
-0.075697 0.056870 0.346700 166 167 153
-0.070997 0.061076 0.347946 165 167 154
-0.075433 0.059492 0.346951 163 163 151
-0.099368 0.023702 0.323666 208 209 204
-0.102711 0.023823 0.326402 208 209 204
-0.101996 0.022875 0.328589 208 209 204
-0.093393 0.023685 0.326021 208 209 203
-0.091997 0.021834 0.330292 203 204 198
-0.077672 0.018129 0.335489 201 200 195
-0.069799 0.017531 0.337142 197 196 191
-0.068139 0.016386 0.338979 197 196 191
-0.060175 0.019771 0.327923 200 201 195
-0.057891 0.017794 0.331665 199 200 194
-0.057971 0.015797 0.337911 198 197 192
-0.058324 0.015214 0.340074 198 195 190
-0.057680 0.014360 0.342044 196 193 186
-0.053950 0.020092 0.327755 202 203 197
-0.052316 0.018970 0.329508 203 204 198
-0.051689 0.018138 0.331427 201 202 196
-0.053063 0.017871 0.333713 197 198 192
-0.052432 0.017035 0.335644 197 196 191
-0.050804 0.015920 0.337380 197 194 189
-0.050175 0.015086 0.339304 198 195 190
-0.048553 0.013979 0.341023 196 193 186
-0.047926 0.013147 0.342942 194 191 184
-0.047299 0.012315 0.344861 194 191 184
-0.044930 0.020777 0.323146 202 203 197
-0.044320 0.019967 0.325014 201 202 196
-0.043709 0.019157 0.326882 200 201 195
-0.045106 0.018935 0.329099 200 201 195
-0.044492 0.018120 0.330979 200 201 195
-0.043878 0.017305 0.332858 198 199 193
-0.044262 0.016777 0.334929 196 195 190
-0.046635 0.016811 0.337407 198 195 190
-0.044024 0.015424 0.338903 197 194 187
-0.041421 0.014047 0.340376 197 194 189
-0.039816 0.012956 0.342040 194 191 186
-0.039204 0.012144 0.343914 193 190 183
-0.039579 0.011603 0.346014 191 187 178
-0.038964 0.010789 0.347893 191 184 176
-0.041725 0.021821 0.323459 205 206 200
-0.040113 0.020714 0.325144 206 207 201
-0.039510 0.019914 0.326989 201 202 196
-0.038907 0.019115 0.328835 201 202 196
-0.037302 0.018018 0.330497 199 200 194
-0.036701 0.017221 0.332336 200 201 195
-0.035289 0.014316 0.339906 196 193 186
-0.033695 0.013234 0.341534 193 190 183
-0.032106 0.012157 0.343151 193 189 180
-0.031507 0.011362 0.344984 191 187 178
-0.030907 0.010568 0.346818 191 184 174
-0.029325 0.009500 0.348412 189 182 172
-0.028728 0.008708 0.350240 187 181 169
-0.033898 0.020793 0.324919 201 202 196
-0.029288 0.018776 0.326034 201 202 196
-0.029706 0.018307 0.328002 201 202 196
-0.029120 0.017529 0.329796 201 200 195
-0.027534 0.016451 0.331399 198 199 193
-0.026950 0.015676 0.333187 197 198 192
-0.026366 0.014901 0.334975 195 196 188
-0.025781 0.014126 0.336764 193 193 185
-0.026188 0.013641 0.338766 194 191 184
-0.028571 0.013728 0.341218 194 190 181
-0.025016 0.012086 0.342353 191 187 176
-0.024429 0.011309 0.344147 187 183 172
-0.023843 0.010531 0.345941 189 182 172
-0.024239 0.010032 0.347977 191 184 174
-0.023651 0.009252 0.349777 188 181 171
-0.022084 0.008199 0.351323 188 180 169
-0.021498 0.007421 0.353117 185 177 166
-0.025677 0.020167 0.324323 200 201 195
-0.023092 0.018774 0.325736 200 201 195
-0.022519 0.018014 0.327490 198 199 193
-0.022946 0.017562 0.329432 197 196 191
-0.022371 0.016800 0.331191 196 195 190
-0.021796 0.016037 0.332951 198 197 192
-0.022215 0.015576 0.334916 198 195 188
-0.021638 0.014810 0.336681 195 192 185
-0.019080 0.013452 0.338014 193 190 183
-0.017517 0.012398 0.339547 196 191 185
-0.017933 0.011931 0.341522 191 187 178
-0.017360 0.011171 0.343276 191 187 176
-0.016787 0.010411 0.345031 190 183 173
-0.016213 0.009651 0.346785 189 182 172
-0.015640 0.008890 0.348539 187 180 170
-0.015067 0.008130 0.350293 187 178 169
-0.014494 0.007370 0.352047 185 177 166
-0.012946 0.006335 0.353533 182 174 161
-0.012375 0.005577 0.355282 182 173 158
-0.021921 0.020299 0.326302 199 200 194
-0.020348 0.019224 0.327866 195 198 191
-0.018778 0.018153 0.329419 195 194 189
-0.017213 0.017088 0.330960 196 196 188
-0.016647 0.016338 0.332691 194 191 184
-0.016081 0.015587 0.334422 196 193 186
-0.013531 0.014227 0.335728 197 194 187
-0.012969 0.013481 0.337448 193 190 183
