ply
format ascii 1.0
element vertex 1204
property float x
property float y
property float z
property uchar red
property uchar green
property uchar blue
end_header
-0.105873 0.075124 0.309366 169 166 151
-0.106166 0.075318 0.308538 169 166 151
-0.105659 0.076036 0.307248 170 167 152
-0.105953 0.076231 0.306417 170 167 150
-0.108718 0.075955 0.304050 166 159 141
-0.109010 0.076149 0.303226 162 155 137
-0.109302 0.076342 0.302401 162 155 137
-0.109594 0.076536 0.301577 166 159 141
-0.109886 0.076729 0.300752 164 157 139
-0.110178 0.076923 0.299928 163 156 140
-0.110469 0.077116 0.299103 164 157 141
-0.110761 0.077310 0.298278 165 159 143
-0.111053 0.077503 0.297454 163 157 141
-0.111345 0.077697 0.296629 166 160 144
-0.111637 0.077891 0.295805 165 159 145
-0.111929 0.078084 0.294980 167 161 147
-0.112221 0.078278 0.294156 165 159 143
-0.112513 0.078471 0.293331 164 161 144
-0.112804 0.078665 0.292507 166 163 146
-0.113875 0.078319 0.292205 166 163 146
-0.114943 0.077973 0.291910 162 159 142
-0.115232 0.078165 0.291091 166 163 148
-0.115522 0.078357 0.290273 162 159 144
-0.113490 0.080174 0.287849 168 165 150
-0.115910 0.079669 0.286454 169 167 146
-0.115431 0.080406 0.285086 165 162 143
-0.115723 0.080600 0.284261 168 162 146
-0.116015 0.080793 0.283436 165 159 143
-0.116307 0.080987 0.282612 165 159 143
-0.115833 0.081728 0.281228 163 158 139
-0.116126 0.081922 0.280400 165 160 141
-0.116419 0.082116 0.279573 165 160 141
-0.116712 0.082310 0.278745 162 157 138
-0.117005 0.082504 0.277918 162 159 142
-0.117298 0.082699 0.277090 164 161 144
-0.117591 0.082893 0.276262 162 159 140
-0.117884 0.083087 0.275435 161 156 137
-0.118177 0.083281 0.274607 163 158 139
-0.118470 0.083476 0.273780 159 154 135
-0.118763 0.083670 0.272952 160 157 140
-0.119056 0.083864 0.272124 163 160 143
-0.119349 0.084058 0.271297 162 160 145
-0.119642 0.084253 0.270469 161 159 144
-0.120685 0.083890 0.270244 156 154 139
-0.120228 0.084641 0.268814 163 160 145
-0.121269 0.084277 0.268595 161 158 143
-0.122308 0.083911 0.268381 162 159 144
-0.122599 0.084104 0.267559 162 159 144
-0.122144 0.084857 0.266121 160 157 142
-0.122436 0.085051 0.265296 161 158 143
-0.122571 0.086195 0.262193 162 159 144
-0.122864 0.086389 0.261366 161 158 143
-0.123157 0.086583 0.260538 163 160 143
-0.124188 0.086212 0.260349 159 158 140
0.067957 0.243567 0.068292 159 156 137
0.066652 0.243377 0.067327 161 158 139
0.066071 0.243762 0.065687 161 158 139
0.063470 0.243378 0.063780 158 155 136
0.062891 0.243762 0.062146 163 160 141
-0.068624 0.045886 0.428887 129 129 121
-0.069866 0.045652 0.428097 130 130 122
-0.069199 0.046267 0.427262 134 131 124
-0.068534 0.046884 0.426422 134 131 124
-0.067871 0.047501 0.425575 134 131 124
-0.068161 0.047694 0.424757 133 130 123
-0.069400 0.047458 0.423975 133 128 122
-0.069688 0.047649 0.423160 132 129 122
-0.069977 0.047841 0.422344 132 129 122
-0.070266 0.048032 0.421529 131 131 123
-0.071499 0.047793 0.420763 132 133 127
-0.071787 0.047983 0.419950 131 132 126
-0.072075 0.048174 0.419138 135 136 131
-0.072362 0.048365 0.418326 129 130 125
-0.072650 0.048555 0.417513 131 132 126
-0.073877 0.048312 0.416765 128 129 123
-0.074164 0.048502 0.415956 132 133 127
-0.077097 0.054676 0.396791 131 132 127
-0.077388 0.054869 0.395969 130 131 126
-0.077679 0.055062 0.395148 129 130 125
-0.077970 0.055255 0.394326 128 129 124
-0.081778 0.056722 0.386288 129 129 127
-0.082068 0.056914 0.385469 128 129 124
-0.082357 0.057106 0.384651 124 124 122
-0.082647 0.057298 0.383832 127 127 125
-0.082937 0.057491 0.383014 130 130 128
-0.082332 0.058147 0.382004 128 128 126
-0.082623 0.058340 0.381182 128 128 126
-0.082913 0.058532 0.380361 125 125 125
-0.084096 0.058259 0.379740 129 129 129
-0.085276 0.057984 0.379125 131 131 131
-0.085564 0.058175 0.378310 129 131 130
-0.085853 0.058367 0.377494 124 126 125
-0.087029 0.058089 0.376892 128 130 129
-0.086430 0.058750 0.375863 128 130 129
-0.086124 0.059604 0.374010 130 132 131
-0.086413 0.059796 0.373192 127 129 128
-0.086703 0.059988 0.372373 128 130 129
-0.086993 0.060180 0.371555 125 127 126
-0.088162 0.059898 0.370971 127 126 124
-0.088451 0.060089 0.370155 127 125 126
-0.088740 0.060281 0.369340 124 124 126
-0.089905 0.059996 0.368768 120 121 123
-0.091068 0.059709 0.368201 125 125 123
-0.102189 0.062854 0.347660 158 157 152
-0.098532 0.065716 0.344395 166 157 148
-0.098820 0.065907 0.343582 167 158 149
-0.098265 0.066596 0.342430 164 158 146
-0.098554 0.066788 0.341614 164 157 147
-0.098843 0.066979 0.340799 158 151 141
-0.099131 0.067170 0.339983 161 154 144
-0.099420 0.067362 0.339168 162 155 145
-0.099709 0.067553 0.338352 159 152 142
-0.099162 0.068248 0.337178 158 151 141
-0.099451 0.068440 0.336360 164 157 147
-0.099741 0.068632 0.335541 160 154 142
-0.100031 0.068824 0.334723 160 154 142
-0.100320 0.069016 0.333904 159 153 141
-0.101440 0.068702 0.333460 162 156 144
-0.101729 0.068893 0.332644 159 153 139
-0.102018 0.069084 0.331829 160 154 140
-0.102306 0.069276 0.331013 161 155 141
-0.102595 0.069467 0.330198 161 155 141
-0.102884 0.069658 0.329382 159 153 139
-0.102349 0.070361 0.328175 162 156 142
-0.102638 0.070553 0.327357 159 156 141
-0.102928 0.070745 0.326538 161 158 143
-0.103218 0.070937 0.325720 163 159 147
-0.103507 0.071129 0.324901 160 156 144
-0.103797 0.071322 0.324083 159 156 141
-0.104087 0.071514 0.323264 163 160 145
-0.105193 0.071190 0.322859 163 160 143
-0.105482 0.071381 0.322043 159 156 139
-0.105770 0.071572 0.321228 161 158 141
-0.105246 0.072282 0.319990 159 156 139
-0.105536 0.072474 0.319172 164 161 146
-0.105014 0.073186 0.317925 163 160 145
-0.105305 0.073379 0.317103 166 160 146
-0.106405 0.073050 0.316716 165 159 145
-0.106695 0.073242 0.315898 171 165 151
-0.106984 0.073435 0.315079 171 165 151
-0.107274 0.073627 0.314261 171 165 151
-0.107564 0.073819 0.313442 166 163 148
-0.107853 0.074011 0.312624 162 159 144
-0.108143 0.074203 0.311805 169 166 151
-0.108433 0.074395 0.310987 170 167 152
-0.107922 0.075114 0.309710 172 169 154
-0.108213 0.075307 0.308888 167 164 149
-0.109302 0.074971 0.308531 168 165 148
-0.111473 0.074296 0.307836 167 164 147
-0.111761 0.074487 0.307023 167 161 145
-0.111255 0.075209 0.305734 165 159 143
-0.111543 0.075400 0.304919 164 159 140
-0.111832 0.075591 0.304103 164 159 140
-0.111330 0.076316 0.302802 165 158 140
-0.111620 0.076508 0.301983 165 158 140
-0.111910 0.076700 0.301165 164 157 139
-0.112199 0.076892 0.300346 162 155 139
-0.112489 0.077084 0.299528 164 159 140
-0.112779 0.077277 0.298709 162 157 138
-0.113069 0.077469 0.297891 166 160 144
-0.112575 0.078199 0.296565 164 158 142
-0.113648 0.077853 0.296254 165 159 143
-0.113157 0.078585 0.294922 167 161 145
-0.114227 0.078237 0.294617 161 158 141
-0.114517 0.078429 0.293798 164 161 144
-0.114807 0.078621 0.292980 167 165 150
-0.115873 0.078271 0.292687 162 160 145
-0.116162 0.078462 0.291871 166 164 151
-0.116451 0.078654 0.291056 164 162 149
-0.117513 0.078300 0.290775 168 166 151
-0.117800 0.078491 0.289962 170 168 153
-0.117317 0.079228 0.288609 169 168 150
-0.117605 0.079419 0.287794 168 167 147
-0.117125 0.080158 0.286432 168 167 149
-0.117414 0.080350 0.285614 164 161 144
-0.117704 0.080542 0.284795 169 163 147
-0.117994 0.080734 0.283977 166 160 144
-0.118284 0.080926 0.283158 166 160 144
-0.118573 0.081118 0.282340 165 159 143
-0.118863 0.081311 0.281521 170 164 148
-0.118391 0.082055 0.280135 168 162 146
-0.118682 0.082248 0.279313 164 161 144
-0.118973 0.082441 0.278492 164 161 144
-0.119264 0.082633 0.277670 163 160 141
-0.119554 0.082826 0.276849 162 159 140
-0.119845 0.083019 0.276027 165 160 141
-0.120136 0.083212 0.275206 167 162 143
-0.120427 0.083405 0.274384 163 160 143
-0.120718 0.083598 0.273563 164 161 144
-0.121008 0.083790 0.272741 164 162 147
-0.121299 0.083983 0.271920 164 162 147
-0.122340 0.083616 0.271699 161 159 144
-0.122630 0.083808 0.270881 162 160 145
-0.122919 0.084000 0.270062 167 164 149
-0.123209 0.084192 0.269244 161 158 143
-0.123499 0.084384 0.268425 163 160 145
-0.123789 0.084576 0.267607 161 158 143
-0.124078 0.084768 0.266788 156 153 138
-0.124368 0.084960 0.265970 161 158 143
-0.123917 0.085718 0.264526 163 160 145
-0.124207 0.085911 0.263705 162 160 145
-0.124498 0.086104 0.262883 164 162 147
-0.124789 0.086297 0.262062 163 161 146
-0.125817 0.085921 0.261877 163 161 146
-0.128153 0.085355 0.260715 160 159 141
-0.128441 0.085546 0.259902 157 154 137
0.068811 0.244482 0.072084 156 155 137
0.068229 0.244868 0.070441 158 157 137
0.067648 0.245254 0.068798 159 156 137
0.066343 0.245061 0.067831 160 157 138
0.065763 0.245446 0.066191 160 157 138
0.063741 0.244672 0.065917 163 160 141
0.062442 0.244475 0.064969 155 152 133
0.061865 0.244858 0.063338 162 159 140
-0.069639 0.047292 0.426700 134 131 124
-0.071737 0.047623 0.423489 136 133 124
-0.072024 0.047813 0.422680 138 135 128
-0.072310 0.048003 0.421870 136 136 128
-0.072597 0.048193 0.421061 137 138 132
-0.072883 0.048383 0.420252 131 132 126
-0.073170 0.048573 0.419442 131 132 126
-0.073456 0.048763 0.418633 132 133 128
-0.074683 0.048516 0.417884 131 132 126
-0.074969 0.048705 0.417078 135 136 130
-0.075254 0.048894 0.416271 131 132 126
-0.075539 0.049084 0.415465 131 132 126
-0.083409 0.057481 0.385084 132 133 128
-0.084594 0.057207 0.384454 134 135 130
-0.083091 0.058331 0.383266 135 136 131
-0.083380 0.058523 0.382447 132 132 130
-0.082777 0.059183 0.381435 129 129 127
-0.083960 0.058907 0.380810 130 130 130
-0.085141 0.058630 0.380191 132 132 132
-0.085429 0.058821 0.379376 131 131 131
-0.086607 0.058542 0.378767 129 131 128
-0.086894 0.058732 0.377954 128 130 127
-0.087182 0.058923 0.377142 129 131 128
-0.088355 0.058641 0.376544 129 131 128
-0.087757 0.059304 0.375517 129 131 128
-0.088045 0.059495 0.374704 129 131 128
-0.088332 0.059686 0.373892 127 129 126
-0.088620 0.059876 0.373080 128 130 127
-0.088907 0.060067 0.372267 129 131 130
-0.090074 0.059781 0.371688 130 129 127
-0.090360 0.059970 0.370879 131 129 130
-0.090647 0.060160 0.370069 127 128 132
-0.091809 0.059871 0.369502 123 127 128
-0.092095 0.060060 0.368696 126 126 124
-0.102339 0.063672 0.347906 165 160 154
-0.101776 0.064359 0.346778 166 159 151
-0.101216 0.065048 0.345645 162 153 144
-0.100658 0.065738 0.344505 170 161 152
-0.100102 0.066429 0.343359 164 158 146
-0.100388 0.066619 0.342550 161 155 143
-0.099835 0.067313 0.341395 164 157 147
-0.100123 0.067503 0.340583 161 154 144
-0.100411 0.067694 0.339770 160 154 142
-0.100698 0.067885 0.338958 158 152 140
-0.100986 0.068075 0.338145 158 152 140
-0.101273 0.068266 0.337333 160 154 142
-0.101561 0.068457 0.336520 162 156 142
-0.101849 0.068647 0.335708 160 154 140
-0.102967 0.068329 0.335265 159 153 139
-0.103253 0.068519 0.334456 159 153 139
-0.103540 0.068709 0.333646 156 150 136
-0.103826 0.068899 0.332837 154 148 134
-0.104113 0.069089 0.332028 158 152 138
-0.104399 0.069279 0.331218 159 153 139
-0.103862 0.069982 0.330021 159 153 139
-0.104149 0.070173 0.329209 155 149 135
-0.104437 0.070364 0.328396 157 154 139
-0.104724 0.070554 0.327584 158 155 140
-0.105832 0.070228 0.327171 160 158 145
-0.105300 0.070936 0.325959 156 154 139
-0.105587 0.071126 0.325146 161 159 144
-0.105875 0.071317 0.324334 157 154 139
-0.106162 0.071508 0.323522 164 161 144
-0.106450 0.071698 0.322709 161 158 141
-0.106737 0.071889 0.321897 161 158 143
-0.107025 0.072080 0.321084 160 157 142
-0.107313 0.072270 0.320272 160 157 142
-0.107600 0.072461 0.319459 163 160 145
-0.107888 0.072652 0.318647 165 159 145
-0.108175 0.072842 0.317835 167 159 146
-0.108463 0.073033 0.317022 168 160 147
-0.108751 0.073224 0.316210 169 161 148
-0.109038 0.073414 0.315397 170 164 150
-0.109326 0.073605 0.314585 168 162 148
-0.108810 0.074323 0.313324 166 163 148
-0.109901 0.073986 0.312960 166 163 148
-0.109388 0.074706 0.311693 170 167 152
-0.109676 0.074898 0.310878 172 169 154
-0.110764 0.074558 0.310523 166 163 148
-0.111051 0.074749 0.309710 168 165 148
-0.112135 0.074408 0.309365 164 161 144
-0.113217 0.074065 0.309025 165 162 145
-0.113503 0.074254 0.308218 167 164 149
-0.113788 0.074443 0.307412 163 160 143
-0.113281 0.075168 0.306127 163 160 143
-0.112777 0.075893 0.304836 163 158 139
-0.113064 0.076084 0.304023 165 160 141
-0.113352 0.076274 0.303211 166 161 142
-0.112852 0.077003 0.301908 168 161 143
-0.113140 0.077194 0.301092 160 153 137
-0.113429 0.077386 0.300277 164 157 139
-0.113718 0.077577 0.299461 166 159 140
-0.114790 0.077228 0.299149 167 160 142
-0.115077 0.077418 0.298336 162 155 139
-0.114583 0.078151 0.297015 166 160 144
-0.114872 0.078343 0.296199 167 161 145
-0.115161 0.078534 0.295384 164 161 144
-0.115449 0.078725 0.294568 164 161 144
-0.116515 0.078372 0.294274 167 164 147
-0.116803 0.078563 0.293462 164 161 144
-0.117090 0.078753 0.292649 166 163 144
-0.118152 0.078397 0.292367 166 163 144
-0.118438 0.078587 0.291558 168 163 144
-0.117953 0.079325 0.290212 173 168 149
-0.118241 0.079516 0.289400 173 167 151
-0.118528 0.079707 0.288587 173 167 153
-0.118816 0.079897 0.287775 168 166 151
-0.119104 0.080088 0.286962 164 162 147
-0.119391 0.080279 0.286150 169 166 149
-0.119679 0.080469 0.285338 168 162 146
-0.119966 0.080660 0.284525 168 162 146
-0.120254 0.080851 0.283713 165 159 143
-0.120541 0.081041 0.282900 169 163 147
-0.120829 0.081232 0.282088 165 162 145
-0.121117 0.081423 0.281275 169 166 149
-0.121404 0.081613 0.280463 170 167 150
-0.120934 0.082362 0.279075 166 163 144
-0.121223 0.082553 0.278259 162 159 140
-0.121511 0.082744 0.277444 165 160 141
-0.121800 0.082936 0.276628 169 164 145
-0.122089 0.083127 0.275813 168 162 146
-0.122377 0.083319 0.274997 164 161 144
-0.122666 0.083510 0.274182 169 167 152
-0.122955 0.083701 0.273367 166 164 149
-0.123992 0.083329 0.273151 164 162 147
-0.124280 0.083520 0.272339 165 163 148
-0.124568 0.083711 0.271526 166 163 148
-0.124855 0.083901 0.270714 168 165 150
-0.125143 0.084092 0.269901 160 157 142
-0.125430 0.084283 0.269089 162 159 144
-0.125718 0.084473 0.268277 162 159 144
-0.126005 0.084664 0.267464 162 160 145
-0.125552 0.085424 0.266027 165 163 148
-0.125841 0.085615 0.265212 164 162 147
-0.126130 0.085807 0.264396 167 165 150
-0.126418 0.085998 0.263581 165 163 148
-0.127443 0.085617 0.263402 167 165 150
-0.127731 0.085808 0.262590 165 163 148
-0.128019 0.085999 0.261777 164 163 145
-0.129039 0.085615 0.261610 164 163 145
-0.129326 0.085805 0.260801 162 161 143
0.069665 0.245398 0.075875 163 160 141
0.069083 0.245784 0.074232 159 156 137
0.068502 0.246169 0.072589 164 163 145
0.067920 0.246555 0.070946 163 162 142
0.067339 0.246940 0.069303 163 160 141
0.066757 0.247326 0.067660 163 160 141
0.065454 0.247130 0.066696 164 159 139
0.064153 0.246932 0.065738 166 161 142
0.062855 0.246733 0.064786 157 154 135
0.061558 0.246533 0.063840 158 155 136
-0.073122 0.048208 0.422970 135 135 127
-0.073408 0.048398 0.422164 139 139 131
-0.073693 0.048587 0.421357 133 134 126
-0.074921 0.048338 0.420601 133 134 126
-0.074264 0.048965 0.419745 138 141 132
-0.074549 0.049155 0.418938 132 135 126
-0.074835 0.049344 0.418132 136 137 131
-0.075120 0.049533 0.417326 135 136 128
-0.075406 0.049722 0.416519 133 133 125
-0.084746 0.058041 0.384703 140 141 135
-0.085034 0.058232 0.383891 139 140 134
-0.084428 0.058893 0.382889 138 139 133
-0.083824 0.059555 0.381880 138 139 134
-0.085005 0.059276 0.381258 140 141 136
-0.087361 0.058712 0.380031 139 139 137
-0.088536 0.058428 0.379427 140 141 136
-0.088821 0.058617 0.378620 134 135 130
-0.089993 0.058331 0.378025 135 136 131
-0.090277 0.058520 0.377222 137 138 133
-0.090561 0.058708 0.376418 138 138 136
-0.089963 0.059374 0.375395 137 137 135
-0.090248 0.059563 0.374588 133 133 131
-0.090534 0.059753 0.373782 129 128 126
-0.091699 0.059462 0.373205 133 131 132
-0.091983 0.059651 0.372402 131 131 131
-0.092268 0.059839 0.371598 129 129 129
-0.092552 0.060028 0.370795 130 130 132
-0.092836 0.060216 0.369992 134 134 134
-0.093121 0.060405 0.369188 130 129 127
-0.093405 0.060593 0.368385 129 128 124
-0.094562 0.060297 0.367832 121 120 116
-0.095716 0.060000 0.367285 117 117 115
-0.095998 0.060187 0.366488 90 94 95
-0.102489 0.064491 0.348151 165 161 150
-0.102771 0.064678 0.347354 162 158 147
-0.102210 0.065369 0.346224 163 159 147
-0.102494 0.065557 0.345424 165 159 147
-0.101936 0.066250 0.344285 165 159 147
-0.101381 0.066944 0.343140 159 153 141
-0.100827 0.067640 0.341989 164 156 145
-0.101114 0.067830 0.341180 160 152 141
-0.101400 0.068020 0.340371 163 157 143
-0.102522 0.067701 0.339915 162 156 142
-0.102808 0.067890 0.339108 164 158 144
-0.103093 0.068080 0.338302 158 152 138
-0.103379 0.068269 0.337496 160 154 140
-0.103664 0.068458 0.336689 160 154 140
-0.103949 0.068647 0.335883 160 154 140
-0.104235 0.068837 0.335077 163 157 145
-0.104520 0.069026 0.334270 155 149 137
-0.104806 0.069215 0.333464 156 150 138
-0.105091 0.069404 0.332657 157 151 137
-0.105377 0.069594 0.331851 160 154 140
-0.105662 0.069783 0.331045 160 154 140
-0.105947 0.069972 0.330238 153 147 131
-0.106518 0.070351 0.328626 160 154 140
-0.106804 0.070540 0.327819 162 156 142
-0.107089 0.070729 0.327013 159 153 139
-0.107375 0.070918 0.326207 159 153 139
-0.107660 0.071108 0.325400 160 154 140
-0.107130 0.071819 0.324183 160 154 140
-0.107417 0.072009 0.323373 161 155 141
-0.108516 0.071675 0.322981 160 154 140
-0.108802 0.071865 0.322175 160 154 140
-0.109087 0.072054 0.321368 159 156 141
-0.109373 0.072243 0.320562 162 159 144
-0.109658 0.072432 0.319756 160 157 142
-0.109944 0.072622 0.318949 162 159 142
-0.110229 0.072811 0.318143 164 158 142
-0.110514 0.073000 0.317337 165 159 143
-0.110800 0.073189 0.316530 167 161 145
-0.110282 0.073909 0.315279 168 162 146
-0.110568 0.074099 0.314470 169 163 149
-0.110855 0.074289 0.313660 166 163 148
-0.111142 0.074479 0.312851 169 166 151
-0.111428 0.074669 0.312042 172 170 155
-0.111715 0.074859 0.311232 172 170 155
-0.112798 0.074514 0.310886 169 166 149
-0.113083 0.074703 0.310079 166 163 146
-0.113369 0.074893 0.309273 165 162 145
-0.114448 0.074545 0.308938 163 160 143
-0.114732 0.074734 0.308135 162 159 142
-0.115017 0.074923 0.307332 163 158 139
-0.114511 0.075650 0.306047 165 158 140
-0.114796 0.075839 0.305241 163 156 137
-0.115081 0.076028 0.304435 167 160 141
-0.114580 0.076758 0.303138 168 163 144
-0.114866 0.076948 0.302329 163 158 139
-0.115153 0.077138 0.301520 162 157 138
-0.115439 0.077328 0.300710 166 161 142
-0.115726 0.077518 0.299901 167 162 143
-0.116012 0.077708 0.299091 167 160 142
-0.116299 0.077898 0.298282 169 164 145
-0.116585 0.078088 0.297473 163 158 139
-0.116872 0.078278 0.296663 165 160 141
-0.117158 0.078468 0.295854 165 162 143
-0.117445 0.078658 0.295044 164 159 140
-0.117731 0.078848 0.294235 167 161 145
-0.118792 0.078489 0.293952 166 160 144
-0.119078 0.078678 0.293146 171 165 149
-0.119363 0.078867 0.292339 169 163 147
-0.118877 0.079608 0.290997 174 168 152
-0.119164 0.079798 0.290188 169 163 149
-0.119450 0.079988 0.289379 169 163 149
-0.119737 0.080178 0.288569 167 164 147
-0.120023 0.080368 0.287760 169 166 149
-0.120310 0.080558 0.286950 169 166 149
-0.120596 0.080748 0.286141 167 161 147
-0.120883 0.080938 0.285332 168 162 148
-0.121169 0.081127 0.284522 167 161 147
-0.122217 0.080760 0.284276 167 161 145
-0.122503 0.080949 0.283469 169 163 147
-0.122788 0.081138 0.282663 165 159 143
-0.122315 0.081887 0.281285 167 161 145
-0.122602 0.082077 0.280475 169 163 147
-0.122888 0.082267 0.279666 166 161 142
-0.123175 0.082457 0.278857 167 161 145
-0.123461 0.082647 0.278047 168 162 146
-0.123748 0.082837 0.277238 166 163 148
-0.124034 0.083027 0.276428 165 162 147
-0.124321 0.083217 0.275619 165 162 145
-0.124607 0.083407 0.274810 165 162 145
-0.124894 0.083597 0.274000 166 163 148
-0.125928 0.083220 0.273793 166 163 148
-0.126214 0.083409 0.272987 165 162 147
-0.126499 0.083598 0.272180 170 167 150
-0.126784 0.083788 0.271374 167 164 147
-0.127070 0.083977 0.270567 163 160 143
-0.127355 0.084166 0.269761 162 161 143
-0.126900 0.084927 0.268334 166 165 147
-0.126446 0.085689 0.266902 162 163 145
-0.126734 0.085880 0.266089 160 161 145
-0.127309 0.086261 0.264464 166 167 151
-0.127596 0.086452 0.263652 164 165 149
-0.128619 0.086067 0.263478 165 163 148
-0.128171 0.086833 0.262027 166 163 146
-0.129192 0.086446 0.261859 162 159 142
-0.129478 0.086636 0.261050 166 163 146
0.070666 0.247279 0.077367 161 158 143
0.070810 0.248246 0.075061 166 163 148
0.069500 0.248052 0.074075 165 162 145
0.068193 0.247856 0.073094 161 158 141
0.067611 0.248242 0.071451 165 164 146
0.067029 0.248627 0.069808 163 162 144
0.066448 0.249013 0.068165 165 164 146
0.065866 0.249399 0.066522 164 163 143
0.064565 0.249199 0.065560 161 158 139
0.063266 0.248997 0.064604 162 159 140
0.061251 0.248207 0.064341 161 158 139
0.126453 0.122267 0.464120 134 137 126
0.125961 0.122594 0.462729 138 138 128
0.125468 0.122921 0.461337 136 136 126
-0.074788 0.048975 0.421652 140 140 132
-0.075073 0.049163 0.420849 138 139 131
-0.075357 0.049352 0.420045 138 139 131
-0.075641 0.049540 0.419242 137 138 132
-0.075272 0.050361 0.417574 136 136 128
-0.076494 0.050106 0.416832 134 134 126
-0.089291 0.058590 0.380682 145 144 140
-0.089575 0.058779 0.379879 141 142 136
-0.090746 0.058489 0.379282 144 145 139
-0.091029 0.058677 0.378482 144 145 139
-0.091313 0.058865 0.377682 143 144 139
-0.091596 0.059053 0.376882 138 139 134
-0.091879 0.059241 0.376081 141 142 137
-0.092163 0.059429 0.375281 141 140 136
-0.092446 0.059616 0.374481 141 140 136
-0.092729 0.059804 0.373680 144 143 139
-0.093012 0.059992 0.372880 139 138 136
-0.093296 0.060180 0.372080 139 138 136
-0.093579 0.060368 0.371279 141 140 138
-0.093862 0.060556 0.370479 140 139 135
-0.094146 0.060743 0.369679 137 136 132
-0.094429 0.060931 0.368879 131 130 125
-0.094712 0.061119 0.368078 128 125 120
-0.095866 0.060818 0.367531 133 128 124
-0.096148 0.061006 0.366733 134 129 125
-0.102639 0.065309 0.348396 163 159 147
-0.102921 0.065496 0.347599 164 160 148
-0.103204 0.065683 0.346802 160 156 144
-0.102644 0.066378 0.345670 160 154 142
-0.102928 0.066566 0.344870 162 156 144
-0.102372 0.067263 0.343729 160 154 142
-0.101818 0.067961 0.342582 166 160 148
-0.102103 0.068151 0.341775 161 155 143
-0.102389 0.068340 0.340969 161 155 143
-0.102674 0.068529 0.340163 159 153 139
-0.103793 0.068206 0.339712 163 157 143
-0.104078 0.068394 0.338909 159 153 139
-0.104362 0.068583 0.338105 163 157 143
-0.104646 0.068771 0.337302 162 156 142
-0.104931 0.068960 0.336499 161 155 141
-0.105215 0.069148 0.335695 160 154 140
-0.105500 0.069337 0.334892 159 153 141
-0.105784 0.069525 0.334089 159 153 141
-0.106068 0.069714 0.333285 156 150 136
-0.106353 0.069903 0.332482 158 152 138
-0.106637 0.070091 0.331679 156 150 136
-0.106921 0.070280 0.330875 157 151 137
-0.107206 0.070468 0.330072 155 149 135
-0.107490 0.070657 0.329269 158 152 138
-0.107774 0.070845 0.328465 161 155 141
-0.108059 0.071034 0.327662 157 151 137
-0.108343 0.071222 0.326859 159 153 139
-0.107812 0.071936 0.325648 155 149 135
-0.108097 0.072125 0.324842 160 154 140
-0.108383 0.072314 0.324035 160 154 140
-0.108668 0.072503 0.323229 160 154 140
-0.109765 0.072165 0.322842 158 152 138
-0.110049 0.072354 0.322039 158 155 140
-0.110334 0.072542 0.321235 163 160 145
-0.110618 0.072731 0.320432 162 159 144
-0.110902 0.072919 0.319629 160 157 142
-0.111187 0.073108 0.318825 158 155 140
-0.111471 0.073296 0.318022 163 157 143
-0.111756 0.073485 0.317219 167 161 147
-0.112040 0.073673 0.316415 168 162 148
-0.111523 0.074396 0.315165 168 162 148
-0.111808 0.074585 0.314359 166 163 148
-0.112093 0.074774 0.313553 167 164 149
-0.112379 0.074964 0.312746 166 164 149
-0.112664 0.075153 0.311940 168 167 149
-0.112950 0.075342 0.311134 167 164 147
-0.114031 0.074993 0.310792 163 160 143
-0.114315 0.075182 0.309989 167 164 147
-0.114599 0.075370 0.309185 166 163 146
-0.114884 0.075559 0.308382 163 160 141
-0.115168 0.075747 0.307579 164 159 140
-0.115452 0.075936 0.306775 166 159 140
-0.115737 0.076124 0.305972 165 158 139
-0.116021 0.076313 0.305169 164 157 139
-0.116305 0.076501 0.304365 166 161 142
-0.116590 0.076690 0.303562 166 161 142
-0.116874 0.076879 0.302759 160 155 136
-0.117159 0.077067 0.301955 166 161 142
-0.117443 0.077256 0.301152 166 159 141
-0.116946 0.077992 0.299845 169 162 144
-0.117231 0.078181 0.299038 165 160 141
-0.117517 0.078370 0.298232 165 160 141
-0.117802 0.078559 0.297425 168 163 144
-0.118088 0.078749 0.296619 167 162 143
-0.118373 0.078938 0.295813 165 159 143
-0.118659 0.079127 0.295006 167 161 145
-0.119718 0.078764 0.294725 171 165 149
-0.119229 0.079506 0.293394 173 167 151
-0.119515 0.079695 0.292587 174 168 152
-0.119800 0.079884 0.291781 169 166 149
-0.119603 0.080819 0.289628 166 163 146
-0.119889 0.081009 0.288818 166 163 144
-0.120176 0.081199 0.288009 169 166 149
-0.120462 0.081389 0.287199 167 164 147
-0.121513 0.081020 0.286943 165 162 147
-0.121798 0.081209 0.286136 170 164 150
-0.122846 0.080838 0.285889 166 160 146
-0.123130 0.081026 0.285085 167 161 145
-0.123415 0.081215 0.284282 168 162 146
-0.123699 0.081403 0.283479 168 162 148
-0.123225 0.082155 0.282105 168 162 146
-0.123511 0.082344 0.281298 164 158 142
-0.123041 0.083098 0.279915 169 163 147
-0.124082 0.082723 0.279685 171 165 149
-0.124367 0.082912 0.278879 172 166 150
-0.124653 0.083101 0.278073 169 166 151
-0.124938 0.083291 0.277266 169 166 151
-0.125224 0.083480 0.276460 167 164 147
-0.125509 0.083669 0.275654 165 162 145
-0.125794 0.083858 0.274847 170 167 150
-0.126827 0.083477 0.274642 166 163 148
-0.127111 0.083666 0.273839 164 161 146
-0.127396 0.083854 0.273035 168 165 150
-0.127680 0.084043 0.272232 169 166 149
-0.127964 0.084232 0.271429 164 161 144
-0.128249 0.084420 0.270625 163 160 145
-0.127792 0.085183 0.269203 162 160 145
-0.128484 0.086708 0.264536 170 169 151
-0.128771 0.086898 0.263727 168 167 149
-0.129057 0.087087 0.262918 168 167 149
-0.129344 0.087277 0.262108 165 164 146
-0.129630 0.087467 0.261299 166 165 147
0.072539 0.250718 0.075906 165 164 146
0.071953 0.251107 0.074251 164 163 145
0.070642 0.250911 0.073257 164 163 145
0.067581 0.251875 0.067323 164 163 145
0.066997 0.252262 0.065674 166 165 145
0.065694 0.252060 0.064705 166 165 145
0.064394 0.251857 0.063742 165 162 143
0.062378 0.251062 0.063471 167 164 145
0.126684 0.123369 0.465939 137 139 128
0.126191 0.123696 0.464548 136 139 128
0.125699 0.124023 0.463157 135 135 125
0.125206 0.124349 0.461765 138 138 128
-0.090613 0.059123 0.380329 149 150 144
-0.090897 0.059311 0.379529 150 151 145
-0.091180 0.059499 0.378728 147 148 142
-0.092347 0.059204 0.378140 150 151 145
-0.092629 0.059392 0.377343 149 150 144
-0.092030 0.060062 0.376327 146 147 141
-0.093194 0.059766 0.375748 149 148 143
-0.092596 0.060438 0.374727 148 147 142
-0.092880 0.060626 0.373926 153 150 145
-0.093163 0.060814 0.373126 151 150 145
-0.094323 0.060514 0.372559 153 152 147
-0.094605 0.060701 0.371762 150 149 144
-0.094887 0.060888 0.370965 150 149 144
-0.095169 0.061076 0.370168 151 148 141
-0.095451 0.061263 0.369370 148 145 138
-0.095734 0.061450 0.368573 147 144 135
-0.096016 0.061637 0.367776 147 140 132
-0.096298 0.061824 0.366978 150 141 134
-0.103071 0.066315 0.347844 163 159 148
-0.103354 0.066502 0.347047 160 156 145
-0.102795 0.067200 0.345916 159 155 143
-0.103078 0.067388 0.345116 159 155 143
-0.102523 0.068088 0.343976 161 155 143
-0.102255 0.068978 0.342023 162 156 144
-0.102540 0.069168 0.341217 158 151 141
-0.104778 0.068515 0.340314 160 154 142
-0.105061 0.068703 0.339514 159 153 141
-0.105345 0.068890 0.338713 157 151 137
-0.104798 0.069596 0.337549 160 154 140
-0.105082 0.069785 0.336746 158 152 138
-0.106194 0.069454 0.336312 159 153 141
-0.106478 0.069642 0.335512 155 149 137
-0.106761 0.069829 0.334712 157 151 139
-0.107044 0.070017 0.333911 155 149 137
-0.107328 0.070205 0.333111 156 150 136
-0.107611 0.070393 0.332311 157 151 137
-0.107894 0.070581 0.331511 156 150 136
-0.108177 0.070769 0.330710 160 154 140
-0.108461 0.070956 0.329910 156 150 136
-0.108744 0.071144 0.329110 158 152 138
-0.109027 0.071332 0.328309 160 154 140
-0.109311 0.071520 0.327509 156 150 136
-0.108249 0.072953 0.325090 158 152 138
-0.108535 0.073142 0.324283 156 150 136
-0.109632 0.072801 0.323892 158 152 138
-0.109916 0.072990 0.323089 157 151 137
-0.110201 0.073178 0.322286 158 152 138
-0.111294 0.072835 0.321907 159 156 141
-0.111577 0.073023 0.321107 160 157 142
-0.111860 0.073210 0.320306 159 156 141
-0.112144 0.073398 0.319506 157 154 139
-0.112427 0.073586 0.318706 158 152 138
-0.112710 0.073774 0.317905 164 158 144
-0.112993 0.073962 0.317105 163 157 143
-0.112476 0.074687 0.315859 165 162 147
-0.112760 0.074875 0.315056 163 160 145
-0.113044 0.075064 0.314253 163 160 145
-0.113329 0.075252 0.313449 165 162 147
-0.113613 0.075441 0.312646 170 167 150
-0.113897 0.075629 0.311843 168 165 148
-0.114182 0.075818 0.311039 162 159 142
-0.115260 0.075464 0.310703 170 164 148
-0.115543 0.075652 0.309902 166 163 146
-0.115826 0.075840 0.309102 168 165 148
-0.116110 0.076028 0.308302 164 159 140
-0.116393 0.076216 0.307502 162 155 137
-0.116676 0.076403 0.306701 164 157 139
-0.116959 0.076591 0.305901 164 157 139
-0.117243 0.076779 0.305101 164 157 139
-0.117526 0.076967 0.304300 165 160 141
-0.117809 0.077155 0.303500 167 162 143
-0.118093 0.077343 0.302700 163 158 139
-0.117594 0.078080 0.301399 162 155 137
-0.117878 0.078269 0.300596 166 159 141
-0.118163 0.078457 0.299793 169 162 144
-0.118447 0.078646 0.298989 168 163 144
-0.117954 0.079387 0.297673 171 166 147
-0.119016 0.079023 0.297383 170 165 146
-0.119300 0.079212 0.296579 169 163 147
-0.119585 0.079400 0.295776 163 157 143
-0.119869 0.079589 0.294973 174 168 152
-0.120153 0.079777 0.294169 171 168 151
-0.120438 0.079966 0.293366 170 167 150
-0.119952 0.080712 0.292029 172 169 152
-0.123758 0.081099 0.286694 165 162 145
-0.124042 0.081287 0.285893 169 163 147
-0.123566 0.082040 0.284529 170 164 148
-0.123850 0.082228 0.283726 166 163 148
-0.124234 0.083551 0.279933 169 163 147
-0.125272 0.083171 0.279709 166 163 148
-0.125556 0.083359 0.278906 165 162 147
-0.125841 0.083548 0.278103 170 167 152
-0.126125 0.083737 0.277299 166 163 146
-0.126409 0.083925 0.276496 163 160 143
-0.126694 0.084114 0.275693 169 166 149
-0.127725 0.083729 0.275490 171 168 153
-0.128008 0.083917 0.274689 169 166 151
-0.128291 0.084104 0.273889 165 162 147
-0.128574 0.084292 0.273089 170 167 152
-0.128858 0.084480 0.272288 166 163 148
-0.128400 0.085245 0.270873 165 162 147
0.073542 0.252615 0.077418 165 164 146
0.072955 0.253004 0.075760 166 165 147
0.071642 0.252806 0.074760 166 165 147
0.070331 0.252607 0.073765 166 165 145
0.069746 0.252995 0.072113 160 159 141
0.069884 0.253972 0.069794 166 165 147
0.070020 0.254950 0.067469 162 161 143
0.069433 0.255339 0.065811 162 161 143
0.068846 0.255728 0.064153 163 162 142
0.067540 0.255526 0.063173 168 167 147
0.066954 0.255914 0.061518 167 164 145
0.065652 0.255709 0.060548 168 165 146
0.125439 0.124379 0.466297 137 139 128
0.124948 0.124705 0.464908 139 141 130
0.124456 0.125030 0.463520 138 138 128
0.123965 0.125356 0.462132 136 136 126
-0.094473 0.061333 0.372805 162 159 152
-0.094755 0.061520 0.372007 157 154 147
-0.095037 0.061707 0.371210 158 155 146
-0.095319 0.061894 0.370413 158 155 146
-0.096166 0.062455 0.368021 156 152 141
-0.104929 0.069336 0.340560 160 156 145
-0.105212 0.069524 0.339760 156 152 140
-0.105495 0.069712 0.338959 154 150 138
-0.107172 0.069753 0.336927 157 154 139
-0.106628 0.070463 0.335758 155 151 139
-0.106912 0.070651 0.334958 158 152 140
-0.111728 0.073844 0.321353 153 150 135
-0.112294 0.074220 0.319752 155 152 137
-0.112577 0.074408 0.318952 158 152 138
-0.115694 0.076474 0.310149 164 161 144
-0.117332 0.076489 0.308226 166 159 141
-0.116827 0.077225 0.306947 165 158 140
-0.117393 0.077601 0.305347 163 156 138
-0.117677 0.077789 0.304547 164 159 140
-0.117960 0.077976 0.303746 167 162 143
-0.118243 0.078164 0.302946 167 160 142
-0.118810 0.078540 0.301345 166 159 141
-0.118314 0.079282 0.300040 168 161 143
-0.118598 0.079471 0.299236 168 163 144
-0.119451 0.080036 0.296826 171 168 153
-0.120793 0.079855 0.295743 170 167 152
-0.121076 0.080043 0.294943 171 168 151
-0.125992 0.084373 0.278350 167 164 149
-0.128158 0.084738 0.274935 170 168 153
-0.129185 0.084348 0.274741 169 167 152
-0.129468 0.084535 0.273943 170 168 155
-0.129750 0.084722 0.273146 169 167 154
0.073816 0.253928 0.079586 168 167 149
0.072502 0.253729 0.078579 167 166 148
0.071916 0.254117 0.076924 168 167 147
0.070605 0.253916 0.075926 168 167 147
0.070020 0.254303 0.074274 169 168 148
0.069435 0.254691 0.072621 167 166 148
0.069572 0.255671 0.070303 165 164 146
0.070429 0.257245 0.067310 167 166 148
0.070561 0.258229 0.064977 165 164 146
0.069972 0.258619 0.063312 164 163 143
0.068794 0.259400 0.059984 167 166 146
0.066057 0.258002 0.060372 166 163 144
0.125178 0.125804 0.466724 138 140 129
0.124686 0.126130 0.465335 138 140 129
0.124195 0.126456 0.463947 136 136 124
0.123703 0.126782 0.462559 137 137 125
0.122234 0.126682 0.461111 139 137 125
0.071458 0.250545 0.090538 170 169 149
0.070877 0.250930 0.088898 173 175 154
0.071904 0.253470 0.083686 169 170 152
0.071320 0.253858 0.082037 166 165 147
0.070736 0.254245 0.080388 170 169 151
0.070152 0.254632 0.078739 171 170 150
0.069569 0.255019 0.077090 165 164 144
0.068985 0.255406 0.075441 167 166 146
0.069124 0.256387 0.073130 167 166 148
0.069261 0.257370 0.070812 165 164 146
0.070116 0.258951 0.067821 169 168 150
0.070967 0.260534 0.064817 165 164 146
0.070377 0.260925 0.063150 166 165 145
0.070504 0.261915 0.060805 165 164 144
0.067764 0.260510 0.061176 166 165 145
0.065745 0.259701 0.060881 168 165 146
0.124916 0.127230 0.467151 138 138 128
0.124425 0.127555 0.465763 136 136 126
0.122954 0.127454 0.464308 137 137 125
0.122463 0.127780 0.462922 137 135 123
0.119181 0.149333 0.405026 145 142 135
0.072891 0.251074 0.095963 170 167 150
0.072310 0.251459 0.094323 173 170 151
0.071729 0.251844 0.092682 167 166 146
0.071149 0.252229 0.091042 167 166 146
0.070568 0.252614 0.089402 168 169 151
0.069554 0.254362 0.083836 171 170 152
0.068973 0.254748 0.082193 168 167 149
0.068391 0.255134 0.080550 165 164 146
0.067810 0.255519 0.078907 170 169 151
0.067228 0.255905 0.077264 168 167 147
0.068091 0.257486 0.074299 169 168 150
0.068949 0.259070 0.071321 169 168 150
0.070524 0.261255 0.067665 169 168 150
0.070653 0.262246 0.065330 171 170 152
0.070063 0.262637 0.063663 170 169 149
0.070190 0.263630 0.061319 165 164 144
0.068167 0.262818 0.061008 164 161 142
0.066149 0.262003 0.060708 169 166 147
0.117042 0.149891 0.405588 144 141 134
0.072582 0.252758 0.096467 168 165 148
0.072001 0.253143 0.094827 169 168 150
0.071421 0.253528 0.093187 169 168 150
0.070840 0.253912 0.091547 166 167 149
0.070260 0.254297 0.089907 170 171 155
0.069245 0.256049 0.084342 170 168 153
0.068663 0.256435 0.082699 173 171 156
0.067357 0.256222 0.081707 170 169 151
0.066777 0.256607 0.080067 167 166 148
0.066919 0.257592 0.077770 172 169 152
0.067780 0.259179 0.074806 168 167 149
0.068638 0.260769 0.071831 170 169 151
0.069491 0.262362 0.068843 166 165 147
0.070340 0.263958 0.065843 171 170 152
0.069032 0.263745 0.064848 168 167 147
0.068443 0.264136 0.063184 171 170 150
0.067139 0.263921 0.062198 168 165 146
0.194185 0.173611 0.441373 142 138 129
0.193604 0.173996 0.439733 141 137 128
0.072273 0.254441 0.096971 170 167 150
0.071693 0.254826 0.095331 167 166 148
0.071112 0.255211 0.093691 166 167 149
0.070532 0.255596 0.092051 165 166 148
0.069951 0.255981 0.090411 167 168 152
0.068209 0.257136 0.085491 172 170 155
0.067629 0.257521 0.083851 170 168 153
0.066324 0.257304 0.082862 172 170 155
0.065745 0.257688 0.081225 171 168 151
0.065165 0.258072 0.079588 169 166 149
0.069897 0.264673 0.068688 170 169 151
0.069308 0.265063 0.067024 169 168 150
0.068719 0.265454 0.065360 169 168 148
0.193876 0.175295 0.441878 141 137 126
0.193296 0.175680 0.440238 140 136 125
0.071964 0.256125 0.097476 171 169 154
0.071384 0.256510 0.095836 169 167 152
0.070803 0.256895 0.094196 165 163 148
0.070223 0.257280 0.092556 170 168 153
0.069642 0.257665 0.090916 169 168 150
0.069062 0.258050 0.089276 169 168 150
0.069208 0.259037 0.086996 168 167 149
0.067901 0.258820 0.085996 168 167 149
0.066595 0.258600 0.085002 174 173 155
0.066016 0.258985 0.083365 171 170 152
0.064714 0.258763 0.082380 169 168 150
0.063657 0.264887 0.065926 168 165 146
0.063073 0.265274 0.064277 169 168 148
0.194526 0.177431 0.442398 141 137 126
0.193944 0.177817 0.440755 139 137 125
-0.097609 0.070989 0.359887 166 163 154
-0.097894 0.071178 0.359081 162 159 150
-0.098179 0.071367 0.358274 164 161 154
-0.098750 0.071746 0.356661 169 164 158
0.071075 0.258194 0.096340 168 166 151
0.070495 0.258579 0.094700 166 164 149
0.069914 0.258964 0.093060 167 166 148
0.069334 0.259349 0.091420 169 168 150
0.068753 0.259734 0.089780 168 167 149
0.068899 0.260724 0.087501 169 168 150
0.067592 0.260503 0.086500 165 164 146
0.067012 0.260888 0.084860 173 172 154
0.066431 0.261273 0.083220 174 173 155
0.063347 0.266580 0.066433 171 170 150
0.062763 0.266968 0.064784 170 169 149
0.194216 0.179118 0.442903 140 138 126
0.193635 0.179503 0.441260 141 139 127
-0.097475 0.071627 0.360941 164 161 152
-0.097760 0.071816 0.360135 162 162 152
-0.098046 0.072006 0.359329 162 162 152
-0.098331 0.072195 0.358522 163 163 155
-0.099467 0.071858 0.358003 164 164 156
-0.099751 0.072046 0.357199 162 162 154
-0.099188 0.072763 0.356103 165 162 155
0.062323 0.267656 0.067615 168 167 147
0.062453 0.268661 0.065291 170 169 149
0.083074 0.134069 0.425777 147 143 134
0.081668 0.133909 0.424490 146 142 133
0.080757 0.135606 0.419229 141 141 131
0.080293 0.135913 0.417920 142 142 132
-0.098481 0.071928 0.361463 160 160 150
-0.098765 0.072117 0.360660 161 161 151
-0.099049 0.072305 0.359856 160 160 150
-0.099334 0.072494 0.359053 160 162 151
-0.099618 0.072683 0.358250 156 157 149
-0.099903 0.072871 0.357446 161 161 153
-0.099339 0.073591 0.356351 162 159 152
0.082828 0.135414 0.426180 147 142 136
0.082364 0.135721 0.424870 145 140 134
0.080959 0.135557 0.423585 149 146 137
0.081437 0.136336 0.422251 147 144 135
0.080974 0.136643 0.420942 143 143 133
0.079572 0.136477 0.419665 146 146 136
0.079109 0.136784 0.418359 142 142 132
-0.098632 0.072753 0.361710 160 157 148
-0.098916 0.072942 0.360907 161 161 151
-0.099201 0.073130 0.360103 163 163 153
-0.099485 0.073319 0.359300 159 161 150
-0.099769 0.073507 0.358497 157 158 150
-0.100054 0.073696 0.357693 158 159 151
-0.100338 0.073884 0.356890 161 158 149
0.082581 0.136758 0.426583 144 141 134
0.082118 0.137066 0.425273 147 144 137
0.081654 0.137373 0.423964 141 138 129
0.081191 0.137680 0.422654 138 135 126
0.080727 0.137988 0.421345 147 144 135
0.079326 0.137818 0.420067 143 140 131
0.077927 0.137648 0.418796 143 140 131
0.076530 0.137475 0.417531 147 144 135
-0.099919 0.073233 0.361429 160 160 150
-0.100203 0.073421 0.360628 156 156 146
-0.100486 0.073608 0.359828 157 157 147
-0.100769 0.073796 0.359028 159 159 149
-0.101052 0.073984 0.358227 161 161 153
0.359333 0.384928 0.154767 162 158 146
0.360932 0.387163 0.151241 154 150 138
0.381548 0.402052 0.139775 163 157 145
0.083277 0.138579 0.426970 146 143 134
0.082813 0.138887 0.425657 143 143 133
0.082348 0.139195 0.424344 141 138 129
0.081883 0.139503 0.423032 145 142 133
0.081419 0.139811 0.421719 146 143 134
0.079080 0.139160 0.420469 143 140 131
0.077682 0.138986 0.419197 147 144 135
0.076285 0.138811 0.417931 146 143 134
-0.100070 0.074054 0.361675 159 156 147
-0.100353 0.074242 0.360874 158 155 146
-0.100636 0.074430 0.360074 158 155 146
-0.100920 0.074618 0.359274 163 160 151
0.358862 0.387496 0.155536 160 158 145
0.360460 0.389740 0.152013 156 152 140
0.365357 0.394201 0.147099 159 153 141
0.366937 0.396457 0.143528 160 154 140
0.362595 0.397133 0.136618 165 159 145
-0.008110 0.205778 0.152727 171 168 151
0.083980 0.141504 0.424705 149 146 137
0.082575 0.141332 0.423411 146 143 134
0.083047 0.142123 0.422068 146 143 134
0.359277 0.389477 0.158806 159 156 147
0.358391 0.390064 0.156305 160 158 145
0.359160 0.391762 0.153125 157 155 142
0.358273 0.392350 0.150618 157 153 141
0.357385 0.392938 0.148111 162 156 142
0.357322 0.394084 0.145255 162 154 141
-0.007168 0.207457 0.153831 167 164 147
-0.008361 0.207144 0.153137 169 166 149
-0.009552 0.206830 0.152448 170 167 150
0.358806 0.392044 0.159575 161 157 146
0.357921 0.392631 0.157074 158 154 143
0.357862 0.393777 0.154235 155 151 140
0.356150 0.393805 0.152073 156 152 140
0.356089 0.394952 0.149227 158 152 140
0.355203 0.395540 0.146723 159 153 139
-0.006947 0.208513 0.155575 167 168 150
-0.008140 0.208198 0.154877 163 164 146
-0.008611 0.208510 0.153546 161 162 144
-0.009802 0.208193 0.152857 166 165 145
-0.010272 0.208505 0.151529 166 165 145
0.358335 0.394612 0.160345 160 156 145
0.358277 0.395760 0.157509 157 153 142
0.357391 0.396348 0.155005 156 152 140
0.355679 0.396373 0.152842 152 148 136
0.354794 0.396960 0.150341 155 149 135
0.354732 0.398111 0.147493 159 153 139
-0.008391 0.209564 0.155286 160 161 143
-0.009581 0.209245 0.154593 165 166 148
-0.010051 0.209556 0.153265 164 163 143
0.098848 0.129654 0.483370 134 132 120
0.099371 0.130420 0.482178 137 135 123
0.099892 0.131187 0.480980 134 132 120
0.459785 0.592048 -0.180680 166 161 142
0.457908 0.592180 -0.183314 168 165 146
-0.009361 0.210296 0.156329 169 168 150
-0.009831 0.210608 0.155001 167 166 148
-0.011019 0.210283 0.154314 168 167 147
0.097618 0.130531 0.483655 134 132 120
0.097158 0.130836 0.482354 134 132 120
0.459179 0.595350 -0.179690 164 159 140
0.460254 0.597981 -0.184651 167 164 145
0.465743 0.604375 -0.193136 168 165 146
0.473420 0.612663 -0.203439 169 166 147
0.478867 0.619084 -0.212042 166 163 146
-0.010331 0.211022 0.157371 169 168 150
-0.010800 0.211333 0.156046 172 171 151
-0.011269 0.211644 0.154721 165 162 143
-0.011738 0.211954 0.153396 164 161 142
0.458574 0.598652 -0.178701 167 164 145
0.461859 0.603179 -0.185400 162 159 140
0.466604 0.608973 -0.193303 163 160 141
0.474271 0.617300 -0.203600 164 161 144
0.478243 0.622489 -0.211022 168 165 148
-0.011518 0.213004 0.155129 165 162 143
-0.012703 0.212672 0.154445 162 159 140
0.459444 0.603216 -0.178865 167 164 147
0.462724 0.607763 -0.185565 162 159 142
0.475120 0.621949 -0.203758 163 162 144
0.478352 0.626528 -0.210591 166 163 146
0.209988 0.266175 0.315279 154 151 142
0.209330 0.266611 0.313421 148 145 136
0.208672 0.267047 0.311562 155 152 143
0.208014 0.267483 0.309704 153 151 139
0.471992 0.621386 -0.196533 167 166 148
0.477435 0.627884 -0.205081 163 162 144
0.478460 0.630573 -0.210158 166 165 147
0.208766 0.267535 0.316043 151 148 139
0.208109 0.267970 0.314188 153 150 141
0.207453 0.268406 0.312333 154 151 142
0.208201 0.268454 0.318658 149 146 137
0.206675 0.268338 0.316997 151 148 139
0.206020 0.268772 0.315148 152 149 140
0.204496 0.268654 0.313497 154 151 142
0.203843 0.269087 0.311651 152 149 140
0.204923 0.270628 0.309397 152 149 140
0.206109 0.269250 0.319603 150 147 138
0.205456 0.269683 0.317757 152 150 138
0.203933 0.269561 0.316105 154 152 140
0.200675 0.268328 0.314852 154 151 142
0.198291 0.267646 0.313418 150 147 138
0.195911 0.266962 0.311996 153 150 141
0.202277 0.268920 0.320918 147 147 137
0.195537 0.265451 0.320414 153 153 141
0.194895 0.265876 0.318601 153 153 141
0.191650 0.264627 0.317376 149 146 137
0.190144 0.264491 0.315771 152 149 140
0.186910 0.263234 0.314576 154 151 142
0.184546 0.262533 0.313195 155 153 141
0.189343 0.264373 0.320310 150 150 138
0.186973 0.263671 0.318906 149 149 137
0.181142 0.260717 0.318305 152 149 140
0.179650 0.260569 0.316736 152 149 140
0.177297 0.259857 0.315377 153 150 141
0.174947 0.259141 0.314030 152 149 140
0.235064 0.343178 0.195512 152 146 132
0.235951 0.344863 0.192728 156 150 136
0.238457 0.347748 0.189225 158 152 136
0.248249 0.356032 0.182498 159 153 137
-0.032064 0.209983 0.163068 166 163 144
0.173384 0.256064 0.324301 148 148 136
0.172768 0.256472 0.322561 150 148 136
0.173017 0.257446 0.320624 156 153 144
0.172400 0.257855 0.318881 152 149 140
0.171783 0.258264 0.317138 147 145 133
0.171166 0.258673 0.315395 151 149 137
0.222474 0.336315 0.201339 157 151 137
0.228248 0.341602 0.196509 153 147 131
-0.031410 0.210684 0.165972 169 166 147
-0.031855 0.210979 0.164713 166 163 144
-0.033005 0.210602 0.164107 167 164 145
-0.033450 0.210897 0.162852 165 162 143
-0.033894 0.211191 0.161597 164 163 143
0.167852 0.254448 0.325977 150 150 138
0.168109 0.255420 0.324062 150 148 136
0.169229 0.256962 0.321945 154 152 140
0.168616 0.257368 0.320214 154 150 141
0.169729 0.258914 0.318079 150 148 136
0.169976 0.259892 0.316136 154 152 140
-0.032353 0.211302 0.167003 168 167 147
-0.032797 0.211596 0.165748 170 167 148
-0.033946 0.211216 0.165144 168 165 146
-0.034389 0.211509 0.163892 165 162 143
-0.034832 0.211803 0.162640 164 161 142
-0.035976 0.211420 0.162048 169 168 148
0.167528 0.256216 0.326507 148 146 134
0.166919 0.256620 0.324785 151 149 137
0.167174 0.257596 0.322868 153 149 138
0.166563 0.258000 0.321143 154 150 141
0.166815 0.258978 0.319217 150 146 135
0.167065 0.259958 0.317284 155 151 140
0.203954 0.328233 0.207837 154 146 133
0.200824 0.326873 0.206910 155 148 132
0.197702 0.325509 0.206001 158 152 136
-0.034443 0.211530 0.167428 170 167 148
-0.034885 0.211823 0.166179 166 163 144
-0.035327 0.212116 0.164930 165 162 143
-0.035769 0.212409 0.163681 164 161 142
-0.036211 0.212702 0.162432 167 164 145
0.166849 0.259366 0.323398 155 151 140
0.166238 0.259771 0.321673 154 150 139
-0.034678 0.212812 0.167812 168 165 146
-0.035120 0.213105 0.166563 167 164 145
-0.035562 0.213398 0.165314 167 164 145
-0.036004 0.213691 0.164066 165 162 143
-0.036447 0.213984 0.162817 165 162 143
-0.034913 0.214094 0.168197 169 166 147
-0.035355 0.214387 0.166948 166 163 144
-0.035797 0.214680 0.165699 165 162 143
-0.036240 0.214974 0.164450 168 165 148
-0.036682 0.215267 0.163201 165 162 145
-0.035590 0.215670 0.167332 165 162 143
-0.036032 0.215963 0.166083 164 161 142
-0.036475 0.216256 0.164834 166 163 144
-0.037626 0.120865 0.397978 148 145 136
-0.037974 0.121096 0.396996 149 146 137
-0.038322 0.121326 0.396014 147 144 135
-0.038697 0.121289 0.398390 147 145 133
-0.039044 0.121519 0.397411 147 145 133
-0.040307 0.120890 0.399883 147 145 133
-0.040652 0.121118 0.398910 147 145 133
-0.040996 0.121346 0.397937 143 141 129
0.222504 0.239578 0.496549 132 126 110
0.221893 0.239983 0.494824 131 128 109
0.221283 0.240388 0.493099 130 127 108
-0.040490 0.121889 0.400182 146 144 132
-0.040835 0.122117 0.399209 143 141 129
0.221827 0.240402 0.498690 134 129 110
0.221218 0.240806 0.496968 134 129 110
0.219648 0.240666 0.495139 136 131 112
0.219040 0.241070 0.493420 132 127 108
0.220542 0.241624 0.499105 131 125 109
0.219933 0.242028 0.497386 140 133 117
0.218365 0.241884 0.495559 136 129 113
0.217758 0.242287 0.493843 133 126 110
0.219257 0.242840 0.499518 135 129 113
0.217689 0.242694 0.497689 137 130 114
0.216124 0.242546 0.495867 137 130 114
0.216477 0.243498 0.494264 133 126 110
0.025551 0.231339 0.259051 158 153 134
0.024290 0.230990 0.258087 158 151 133
0.023810 0.231308 0.256732 155 150 131
0.025777 0.232415 0.260827 158 153 134
0.024514 0.232063 0.259858 158 151 133
0.023254 0.231710 0.258896 159 152 134
0.021996 0.231355 0.257940 153 146 128
0.020741 0.230999 0.256989 154 149 130
0.019487 0.230642 0.256045 157 152 133
0.078287 0.312894 0.157254 158 156 135
0.025521 0.233809 0.261245 155 150 131
0.024259 0.233454 0.260275 157 150 132
0.022220 0.232424 0.259703 155 148 130
0.021743 0.232740 0.258354 154 147 128
0.019710 0.231705 0.257801 156 149 131
0.019234 0.232021 0.256458 157 152 133
0.017984 0.231659 0.255519 153 150 131
0.078404 0.313114 0.161567 157 155 132
0.077821 0.313501 0.159918 160 158 135
0.077237 0.313889 0.158269 157 155 134
0.076653 0.314276 0.156620 158 155 136
0.075332 0.313960 0.155484 154 151 132
-0.341909 -0.059810 0.387964 123 160 187
-0.341374 -0.060050 0.389389 125 162 189
-0.342007 -0.060210 0.390871 112 149 176
-0.340209 -0.056580 0.375139 144 186 208
-0.340849 -0.056741 0.376636 145 187 211
