ply
format ascii 1.0
element vertex 1249
property float x
property float y
property float z
property uchar red
property uchar green
property uchar blue
end_header
0.140289 -0.043848 0.665000 67 91 117
0.142682 -0.043914 0.666000 102 128 155
0.144864 -0.043914 0.666000 114 140 167
0.147267 -0.043980 0.667000 112 137 167
0.149453 -0.043980 0.667000 101 127 154
0.151411 -0.043914 0.666000 101 128 155
0.153363 -0.043848 0.665000 102 129 156
0.155775 -0.043914 0.666000 100 127 154
0.157483 -0.043782 0.664000 104 131 158
0.159418 -0.043716 0.663000 104 130 155
0.163763 -0.043716 0.663000 104 128 154
0.228016 -0.047606 0.722000 10 17 36
0.229424 -0.047408 0.719000 11 16 35
0.230813 -0.047211 0.716000 10 16 32
0.231857 -0.046947 0.712000 11 17 31
0.233203 -0.046749 0.709000 9 17 28
0.234197 -0.046485 0.705000 8 16 29
0.235501 -0.046287 0.702000 10 16 30
0.237123 -0.046156 0.700000 8 14 26
0.238391 -0.045958 0.697000 8 14 26
0.239639 -0.045760 0.694000 7 13 25
0.241216 -0.045628 0.692000 7 13 25
0.242427 -0.045430 0.689000 9 15 27
0.243620 -0.045232 0.686000 8 14 26
0.245151 -0.045101 0.684000 10 14 26
0.245945 -0.044837 0.680000 11 15 27
0.247443 -0.044705 0.678000 9 13 25
0.248928 -0.044573 0.676000 9 13 24
0.250772 -0.044507 0.675000 9 13 24
0.252983 -0.044507 0.675000 8 12 21
0.255573 -0.044573 0.676000 8 13 19
0.258169 -0.044639 0.677000 10 13 20
0.260388 -0.044639 0.677000 12 16 27
0.262218 -0.044573 0.676000 7 20 37
0.263259 -0.044375 0.673000 65 95 119
0.264676 -0.044243 0.671000 59 96 123
0.266874 -0.044243 0.671000 14 44 72
0.268672 -0.044177 0.670000 5 23 47
0.270463 -0.044111 0.669000 5 16 34
0.272655 -0.044111 0.669000 9 22 31
0.274847 -0.044111 0.669000 8 21 29
0.277039 -0.044111 0.669000 7 18 24
0.279231 -0.044111 0.669000 6 15 22
0.281423 -0.044111 0.669000 7 14 22
0.283615 -0.044111 0.669000 5 12 18
0.285807 -0.044111 0.669000 5 13 16
0.288430 -0.044177 0.670000 6 14 17
0.290625 -0.044177 0.670000 5 13 16
0.292820 -0.044177 0.670000 7 12 18
0.295456 -0.044243 0.671000 8 13 19
0.297655 -0.044243 0.671000 10 14 23
0.300300 -0.044309 0.672000 15 18 27
0.302952 -0.044375 0.673000 14 17 24
0.306064 -0.044507 0.675000 18 21 28
0.309189 -0.044639 0.677000 21 24 31
0.311867 -0.044705 0.678000 20 27 33
0.314552 -0.044771 0.679000 31 42 48
0.316777 -0.044771 0.679000 12 29 36
0.318062 -0.044639 0.677000 18 38 47
0.319807 -0.044573 0.676000 18 36 50
0.321070 -0.044441 0.674000 12 29 45
0.322319 -0.044309 0.672000 126 152 169
0.323555 -0.044177 0.670000 131 164 181
0.324291 -0.043980 0.667000 140 178 199
0.326477 -0.043980 0.667000 125 166 188
-0.320980 -0.046988 0.750000 57 75 79
-0.318523 -0.046988 0.750000 4 21 29
-0.316065 -0.046988 0.750000 0 17 29
-0.313608 -0.046988 0.750000 0 19 32
-0.310735 -0.046926 0.749000 0 23 37
-0.307870 -0.046863 0.748000 0 22 37
-0.305419 -0.046863 0.748000 1 29 43
-0.302158 -0.046738 0.746000 39 66 83
-0.298910 -0.046613 0.744000 84 115 133
-0.294878 -0.046362 0.740000 77 113 129
-0.291268 -0.046174 0.737000 57 93 109
-0.286110 -0.045735 0.730000 33 64 82
-0.282552 -0.045547 0.727000 23 54 75
-0.275930 -0.044858 0.716000 11 45 73
-0.272056 -0.044608 0.712000 26 67 99
-0.268965 -0.044482 0.710000 140 196 229
-0.267015 -0.044545 0.711000 130 192 229
-0.265802 -0.044733 0.714000 137 199 238
-0.264938 -0.044984 0.718000 140 199 233
-0.264780 -0.045360 0.724000 11 60 90
-0.264220 -0.045673 0.729000 5 42 71
-0.263627 -0.045986 0.734000 11 41 69
-0.262646 -0.046237 0.738000 11 42 62
-0.261991 -0.046550 0.743000 12 40 61
-0.260953 -0.046801 0.747000 9 40 61
-0.260928 -0.047239 0.754000 6 37 58
-0.260172 -0.047552 0.759000 19 51 72
-0.259382 -0.047866 0.764000 14 46 67
-0.258896 -0.048242 0.770000 26 58 79
-0.258038 -0.048555 0.775000 41 73 94
-0.257806 -0.048993 0.782000 50 81 102
-0.257529 -0.049432 0.789000 67 99 124
-0.257206 -0.049870 0.796000 70 102 127
-0.256517 -0.050246 0.802000 78 112 139
-0.255472 -0.050560 0.807000 74 108 136
-0.254080 -0.050810 0.811000 86 119 150
-0.252353 -0.050998 0.814000 81 116 146
-0.249993 -0.051061 0.815000 79 114 144
-0.246715 -0.050936 0.813000 80 115 145
-0.241950 -0.050497 0.806000 79 110 138
-0.238122 -0.050246 0.802000 74 105 133
-0.234319 -0.049996 0.798000 74 105 133
-0.227059 -0.048993 0.782000 65 99 127
-0.223348 -0.048743 0.778000 73 108 136
-0.219664 -0.048492 0.774000 73 110 139
-0.216006 -0.048242 0.770000 73 112 141
-0.213206 -0.048179 0.769000 78 119 147
-0.210138 -0.048054 0.767000 48 89 119
-0.207895 -0.048116 0.768000 26 65 94
-0.242016 -0.056699 0.905000 19 54 82
-0.239315 -0.056762 0.906000 98 132 159
-0.237129 -0.056950 0.909000 100 132 155
-0.234923 -0.057138 0.912000 96 127 148
-0.232952 -0.057389 0.916000 95 126 147
-0.231206 -0.057702 0.921000 93 124 145
-0.229427 -0.058015 0.926000 93 124 144
-0.228349 -0.058516 0.934000 89 114 134
-0.226735 -0.058892 0.940000 13 31 51
-0.225321 -0.059331 0.947000 16 34 54
-0.223861 -0.059769 0.954000 65 87 110
-0.222354 -0.060208 0.961000 71 99 121
-0.220574 -0.060584 0.967000 77 103 128
-0.218755 -0.060960 0.973000 82 106 132
-0.216896 -0.061336 0.979000 83 111 133
-0.214998 -0.061712 0.985000 84 115 136
-0.213060 -0.062087 0.991000 89 119 143
-0.211719 -0.062651 1.000000 93 125 148
-0.209693 -0.063027 1.006000 98 130 155
-0.208038 -0.063528 1.014000 104 138 165
-0.206532 -0.064092 1.023000 106 140 167
-0.204769 -0.064593 1.031000 110 144 171
-0.202759 -0.065032 1.038000 112 148 174
-0.200894 -0.065533 1.046000 116 150 177
-0.199354 -0.066160 1.056000 115 149 176
-0.197378 -0.066661 1.064000 114 148 175
-0.195350 -0.067162 1.072000 115 149 176
-0.193090 -0.067601 1.079000 115 151 177
-0.190609 -0.067977 1.085000 116 152 178
-0.187743 -0.068227 1.089000 117 153 179
-0.185021 -0.068541 1.094000 120 154 179
-0.182431 -0.068916 1.100000 105 140 168
-0.179315 -0.069104 1.103000 81 116 148
-0.175701 -0.069104 1.103000 84 115 144
-0.170682 -0.068541 1.094000 105 130 150
-0.164807 -0.067601 1.079000 112 130 144
-0.158581 -0.066473 1.061000 116 129 146
-0.153789 -0.065909 1.052000 89 101 123
-0.148198 -0.064969 1.037000 32 53 82
-0.143823 -0.064531 1.030000 1 29 66
-0.139221 -0.063967 1.021000 106 146 182
-0.134012 -0.063090 1.007000 18 69 100
-0.129155 -0.062338 0.995000 0 48 79
-0.124503 -0.061649 0.984000 64 110 146
-0.120539 -0.061273 0.978000 60 99 138
-0.116975 -0.061085 0.975000 68 107 138
-0.113547 -0.060960 0.973000 47 81 106
-0.110359 -0.060960 0.973000 46 76 100
-0.107060 -0.060897 0.972000 48 76 98
-0.103983 -0.060960 0.973000 47 73 96
-0.101002 -0.061085 0.975000 46 72 95
-0.098008 -0.061210 0.977000 49 74 96
-0.094806 -0.061210 0.977000 47 72 94
-0.091605 -0.061210 0.977000 43 68 90
-0.088223 -0.061085 0.975000 45 72 91
-0.084941 -0.061022 0.974000 42 69 86
-0.081666 -0.060960 0.973000 46 72 89
-0.078478 -0.060960 0.973000 44 66 87
-0.075367 -0.061022 0.974000 38 60 81
-0.072324 -0.061148 0.976000 20 40 64
-0.069267 -0.061273 0.978000 57 75 99
-0.066265 -0.061461 0.981000 57 75 99
-0.063437 -0.061837 0.987000 112 130 142
-0.060691 -0.062338 0.995000 118 132 135
-0.058181 -0.063153 1.008000 121 133 133
-0.055749 -0.064155 1.024000 118 127 132
-0.053315 -0.065283 1.042000 105 109 121
-0.050571 -0.066160 1.056000 29 32 51
-0.047468 -0.066661 1.064000 19 34 55
-0.044106 -0.066849 1.067000 92 122 148
-0.040610 -0.066849 1.067000 36 69 104
-0.037114 -0.066849 1.067000 0 32 60
-0.033680 -0.066974 1.069000 76 113 132
-0.030093 -0.066786 1.066000 74 110 132
0.020619 -0.037967 0.606000 34 55 74
0.022456 -0.037716 0.602000 81 103 126
0.024428 -0.037716 0.602000 115 142 163
0.026357 -0.037653 0.601000 147 175 196
0.028279 -0.037591 0.600000 150 181 201
0.029842 -0.037090 0.592000 171 203 224
0.031352 -0.036588 0.584000 118 153 175
0.033265 -0.036588 0.584000 128 164 188
0.035299 -0.036714 0.586000 136 176 201
0.055155 -0.039972 0.638000 63 100 129
0.057425 -0.040097 0.640000 84 123 154
0.059615 -0.040159 0.641000 64 97 128
0.061812 -0.040222 0.642000 11 41 69
0.063916 -0.040222 0.642000 0 26 53
0.066019 -0.040222 0.642000 6 28 52
0.068123 -0.040222 0.642000 3 21 45
0.070117 -0.040159 0.641000 2 20 42
0.088440 -0.045234 0.722000 6 28 51
0.091057 -0.045360 0.724000 6 28 51
0.093558 -0.045422 0.725000 11 33 54
0.096066 -0.045485 0.726000 21 43 64
0.098716 -0.045610 0.728000 36 58 79
0.110191 -0.046425 0.741000 77 95 115
0.119953 -0.041413 0.661000 17 34 52
0.122488 -0.041538 0.663000 5 22 40
0.124660 -0.041538 0.663000 0 17 37
0.127024 -0.041600 0.664000 0 16 36
0.129394 -0.041663 0.665000 0 15 35
0.131573 -0.041663 0.665000 4 20 43
0.133752 -0.041663 0.665000 9 24 45
0.136136 -0.041726 0.666000 14 26 48
0.138525 -0.041788 0.667000 7 22 41
0.140922 -0.041851 0.668000 10 27 45
0.143111 -0.041851 0.668000 5 26 45
0.145299 -0.041851 0.668000 7 28 49
0.147488 -0.041851 0.668000 9 29 53
0.149677 -0.041851 0.668000 0 20 49
0.151866 -0.041851 0.668000 21 45 73
0.153824 -0.041788 0.667000 57 83 110
0.155541 -0.041663 0.665000 98 128 154
0.157720 -0.041663 0.665000 115 145 171
0.159659 -0.041600 0.664000 103 133 159
0.161591 -0.041538 0.663000 98 128 152
0.163763 -0.041538 0.663000 104 132 156
0.165936 -0.041538 0.663000 97 119 143
0.168108 -0.041538 0.663000 6 26 51
0.170537 -0.041600 0.664000 40 56 79
0.172973 -0.041663 0.665000 112 128 144
0.175415 -0.041726 0.666000 108 120 134
0.177597 -0.041726 0.666000 99 111 123
0.226588 -0.045422 0.725000 11 20 35
0.228016 -0.045234 0.722000 7 16 31
0.229424 -0.045046 0.719000 8 17 32
0.230813 -0.044858 0.716000 9 17 28
0.232182 -0.044670 0.713000 8 17 26
0.233203 -0.044420 0.709000 7 15 26
0.234197 -0.044169 0.705000 8 16 27
0.235836 -0.044044 0.703000 6 14 25
0.237123 -0.043856 0.700000 8 15 25
0.238733 -0.043731 0.698000 7 14 24
0.240329 -0.043605 0.696000 6 13 23
0.241564 -0.043417 0.693000 6 15 24
0.243131 -0.043292 0.691000 6 15 24
0.244685 -0.043167 0.689000 6 15 22
0.246226 -0.043041 0.687000 7 14 22
0.247392 -0.042853 0.684000 8 15 23
0.248538 -0.042666 0.681000 7 14 22
0.249665 -0.042478 0.678000 7 14 22
0.251515 -0.042415 0.677000 7 14 20
0.253358 -0.042352 0.676000 8 15 21
0.255951 -0.042415 0.677000 5 13 16
0.258169 -0.042415 0.677000 5 14 21
0.260003 -0.042352 0.676000 4 14 24
0.261442 -0.042227 0.674000 31 50 67
0.263259 -0.042164 0.673000 74 109 129
0.265070 -0.042102 0.672000 23 63 88
0.266874 -0.042039 0.671000 8 40 63
0.268672 -0.041976 0.670000 3 24 43
0.270867 -0.041976 0.670000 5 19 32
0.273063 -0.041976 0.670000 8 19 25
0.275258 -0.041976 0.670000 7 16 21
0.277453 -0.041976 0.670000 3 12 17
0.279648 -0.041976 0.670000 5 12 18
0.281844 -0.041976 0.670000 8 13 19
0.284039 -0.041976 0.670000 7 14 20
0.286234 -0.041976 0.670000 7 14 20
0.288860 -0.042039 0.671000 4 11 17
0.291059 -0.042039 0.671000 5 13 16
0.293257 -0.042039 0.671000 4 12 14
0.295456 -0.042039 0.671000 4 12 15
0.297655 -0.042039 0.671000 5 12 18
0.300300 -0.042102 0.672000 7 14 20
0.302952 -0.042164 0.673000 8 15 21
0.305611 -0.042227 0.674000 9 19 21
0.308732 -0.042352 0.676000 11 21 23
0.311407 -0.042415 0.677000 13 23 25
0.313626 -0.042415 0.677000 15 24 29
0.314911 -0.042290 0.675000 16 29 37
0.316183 -0.042164 0.673000 16 33 43
0.317442 -0.042039 0.671000 33 56 72
0.318211 -0.041851 0.668000 112 143 163
0.319441 -0.041726 0.666000 152 190 213
0.321140 -0.041663 0.665000 115 157 182
0.322347 -0.041538 0.663000 110 146 172
0.324519 -0.041538 0.663000 103 135 160
0.326199 -0.041475 0.662000 98 128 152
-0.323120 -0.044821 0.755000 0 16 25
-0.310321 -0.044406 0.748000 0 17 29
-0.307046 -0.044287 0.746000 1 23 36
-0.303785 -0.044168 0.744000 5 23 37
-0.300538 -0.044050 0.742000 3 25 39
-0.296901 -0.043872 0.739000 1 24 40
-0.293284 -0.043693 0.736000 0 28 42
-0.288106 -0.043278 0.729000 10 39 55
-0.282582 -0.042803 0.721000 48 79 97
-0.277499 -0.042387 0.714000 73 108 128
-0.272847 -0.042031 0.708000 82 120 143
-0.269381 -0.041853 0.705000 58 98 124
-0.266692 -0.041794 0.704000 59 106 136
-0.264761 -0.041853 0.705000 130 183 215
-0.263196 -0.041972 0.707000 125 181 214
-0.262724 -0.042269 0.712000 131 188 218
-0.262586 -0.042625 0.718000 69 118 148
-0.262045 -0.042922 0.723000 0 32 62
-0.261831 -0.043278 0.729000 0 28 52
-0.261222 -0.043575 0.734000 0 22 42
-0.260228 -0.043812 0.738000 0 25 44
-0.259556 -0.044109 0.743000 0 24 45
-0.259198 -0.044465 0.749000 0 21 42
-0.258458 -0.044762 0.754000 0 20 39
-0.257345 -0.045000 0.758000 0 23 43
-0.256543 -0.045296 0.763000 0 20 40
-0.255707 -0.045593 0.768000 0 18 36
-0.255499 -0.046009 0.775000 0 18 36
-0.255571 -0.046484 0.783000 0 23 42
-0.256236 -0.047077 0.793000 0 26 44
-0.255557 -0.047434 0.799000 0 24 43
-0.254205 -0.047671 0.803000 2 27 49
-0.252827 -0.047908 0.807000 1 25 49
-0.250803 -0.048027 0.809000 0 21 49
-0.247232 -0.047849 0.806000 0 24 52
-0.243984 -0.047730 0.804000 0 25 52
-0.237147 -0.046899 0.790000 0 22 50
-0.232184 -0.046424 0.782000 0 25 54
-0.227566 -0.046009 0.775000 0 30 58
-0.224155 -0.045831 0.772000 8 49 77
-0.220765 -0.045653 0.769000 28 72 101
-0.217394 -0.045474 0.766000 77 118 148
-0.214884 -0.045474 0.766000 100 141 171
-0.212374 -0.045474 0.766000 48 89 117
-0.210138 -0.045534 0.767000 31 66 98
-0.207895 -0.045593 0.768000 4 37 70
-0.242283 -0.053786 0.906000 11 41 75
-0.239843 -0.053904 0.908000 41 72 103
-0.237129 -0.053964 0.909000 64 95 123
-0.234923 -0.054142 0.912000 95 127 150
-0.232952 -0.054379 0.916000 99 131 152
-0.231206 -0.054676 0.921000 87 122 144
-0.229675 -0.055032 0.927000 87 122 144
-0.228104 -0.055389 0.933000 85 116 136
-0.226735 -0.055804 0.940000 53 79 96
-0.225321 -0.056220 0.947000 12 35 51
-0.223626 -0.056576 0.953000 67 88 109
-0.221892 -0.056932 0.959000 77 99 123
-0.219890 -0.057229 0.964000 76 102 125
-0.218080 -0.057585 0.970000 79 107 128
-0.216453 -0.058001 0.977000 84 115 135
-0.214343 -0.058298 0.982000 85 116 137
-0.212630 -0.058713 0.989000 88 118 142
-0.211084 -0.059188 0.997000 95 125 149
-0.209484 -0.059663 1.005000 100 130 156
-0.207628 -0.060079 1.012000 102 134 159
-0.206330 -0.060672 1.022000 108 142 167
-0.204571 -0.061147 1.030000 106 142 166
-0.202759 -0.061622 1.038000 114 146 169
-0.200894 -0.062097 1.046000 116 150 175
-0.199354 -0.062691 1.056000 115 151 177
-0.197378 -0.063166 1.064000 115 150 178
-0.195350 -0.063640 1.072000 118 152 180
-0.192911 -0.063997 1.078000 116 150 177
-0.190433 -0.064353 1.084000 111 143 168
-0.187571 -0.064590 1.088000 82 116 141
-0.184682 -0.064828 1.092000 89 117 139
-0.181768 -0.065065 1.096000 84 119 149
-0.178989 -0.065362 1.101000 17 55 91
-0.175541 -0.065421 1.102000 0 33 65
-0.171150 -0.065125 1.097000 0 31 60
-0.165570 -0.064353 1.084000 0 27 56
-0.159777 -0.063462 1.069000 11 41 69
-0.153204 -0.062216 1.048000 35 68 99
-0.148627 -0.061741 1.040000 92 133 163
-0.143962 -0.061206 1.031000 82 127 160
-0.139221 -0.060613 1.021000 33 82 114
-0.134012 -0.059782 1.007000 33 78 111
-0.129285 -0.059129 0.996000 5 58 89
-0.124630 -0.058476 0.985000 59 105 138
-0.120663 -0.058119 0.979000 57 96 127
-0.116975 -0.057882 0.975000 40 74 102
-0.113664 -0.057823 0.974000 45 79 104
-0.110359 -0.057763 0.973000 47 77 101
-0.107171 -0.057763 0.973000 45 69 93
-0.103983 -0.057763 0.973000 48 73 95
-0.101002 -0.057882 0.975000 43 70 91
-0.098008 -0.058001 0.977000 43 71 93
-0.094806 -0.058001 0.977000 40 68 90
-0.091511 -0.057941 0.976000 33 58 80
-0.088223 -0.057882 0.975000 26 53 72
-0.084941 -0.057823 0.974000 36 63 82
-0.081582 -0.057704 0.972000 13 40 59
-0.078478 -0.057763 0.973000 18 45 64
-0.075289 -0.057763 0.973000 31 58 79
-0.072250 -0.057882 0.975000 14 42 64
-0.069197 -0.058001 0.977000 47 75 97
-0.066198 -0.058179 0.980000 61 87 112
-0.063373 -0.058535 0.986000 103 129 144
-0.060569 -0.058951 0.993000 119 142 156
-0.058065 -0.059722 1.006000 127 150 166
-0.055640 -0.060672 1.022000 118 144 161
-0.053264 -0.061800 1.041000 107 133 150
-0.050523 -0.062631 1.055000 66 91 111
-0.047423 -0.063106 1.063000 64 92 116
-0.044106 -0.063344 1.067000 80 111 142
-0.013006 -0.035620 0.600000 68 102 129
-0.011022 -0.035560 0.599000 72 104 129
-0.009059 -0.035560 0.599000 73 103 129
-0.005125 -0.035501 0.598000 86 118 141
-0.003160 -0.035442 0.597000 103 135 158
-0.001202 -0.035382 0.596000 117 149 170
0.000749 -0.035323 0.595000 136 169 188
0.002694 -0.035263 0.594000 148 179 199
0.004641 -0.035263 0.594000 159 190 210
0.006576 -0.035204 0.593000 167 198 218
0.008505 -0.035145 0.592000 154 187 202
0.010427 -0.035085 0.591000 148 181 198
0.012342 -0.035026 0.590000 124 159 179
0.014275 -0.035026 0.590000 165 200 222
0.016236 -0.035085 0.591000 121 157 179
0.018172 -0.035085 0.591000 112 150 171
0.020143 -0.035145 0.592000 113 149 173
0.022157 -0.035263 0.594000 127 163 187
0.024104 -0.035263 0.594000 161 195 220
0.026094 -0.035323 0.595000 166 202 228
0.028043 -0.035323 0.595000 163 204 232
0.029842 -0.035145 0.592000 167 211 238
0.031620 -0.034967 0.589000 165 206 234
0.033607 -0.035026 0.590000 163 203 229
0.046207 -0.037401 0.630000 56 89 120
0.048348 -0.037460 0.631000 69 104 136
0.050575 -0.037579 0.633000 71 107 139
0.052815 -0.037697 0.635000 97 133 165
0.055069 -0.037816 0.637000 47 80 111
0.057336 -0.037935 0.639000 0 25 57
0.059522 -0.037994 0.640000 2 24 48
0.061812 -0.038113 0.642000 2 22 46
0.063916 -0.038113 0.642000 0 15 36
0.066019 -0.038113 0.642000 25 46 67
0.068123 -0.038113 0.642000 71 94 112
0.070117 -0.038054 0.641000 71 93 114
0.080780 -0.042566 0.717000 75 97 118
0.083245 -0.042625 0.718000 83 105 126
0.085836 -0.042744 0.720000 78 105 124
0.088317 -0.042803 0.721000 97 125 146
0.090931 -0.042922 0.723000 95 122 143
0.093558 -0.043040 0.725000 94 122 143
0.096066 -0.043100 0.726000 93 121 142
0.098581 -0.043159 0.727000 93 121 142
0.101379 -0.043337 0.730000 94 121 142
0.104056 -0.043456 0.732000 94 121 142
0.107036 -0.043693 0.736000 94 121 142
0.109894 -0.043872 0.739000 96 123 144
0.112619 -0.043990 0.741000 96 123 142
0.115202 -0.044050 0.742000 98 125 144
0.117950 -0.044168 0.744000 96 123 142
0.120550 -0.044228 0.745000 97 122 142
0.123156 -0.044287 0.746000 97 122 142
0.125937 -0.044406 0.748000 100 122 143
0.128903 -0.044584 0.751000 98 124 141
0.131888 -0.044762 0.754000 101 128 145
0.134715 -0.044881 0.756000 99 125 140
0.137555 -0.045000 0.758000 98 124 139
0.122488 -0.039360 0.663000 100 123 139
0.124848 -0.039419 0.664000 101 122 139
0.127024 -0.039419 0.664000 105 127 141
0.129394 -0.039478 0.665000 113 132 147
0.131573 -0.039478 0.665000 113 130 146
0.133953 -0.039538 0.666000 111 128 144
0.136340 -0.039597 0.667000 98 115 131
0.138733 -0.039657 0.668000 62 81 96
0.141133 -0.039716 0.669000 28 47 61
0.143539 -0.039775 0.670000 5 23 37
0.145734 -0.039775 0.670000 11 24 41
0.148150 -0.039835 0.671000 10 21 39
0.150349 -0.039835 0.671000 15 26 44
0.152320 -0.039775 0.670000 13 26 43
0.154285 -0.039716 0.669000 12 27 46
0.156243 -0.039657 0.668000 11 28 48
0.157958 -0.039538 0.666000 10 31 52
0.159899 -0.039478 0.665000 2 24 47
0.161835 -0.039419 0.664000 11 33 56
0.164010 -0.039419 0.664000 44 68 92
0.166186 -0.039419 0.664000 92 116 140
0.168361 -0.039419 0.664000 95 119 143
0.170537 -0.039419 0.664000 85 110 132
0.172973 -0.039478 0.665000 65 87 108
0.175152 -0.039478 0.665000 52 69 87
0.177331 -0.039478 0.665000 46 58 74
0.179510 -0.039478 0.665000 52 58 74
0.181689 -0.039478 0.665000 59 63 75
0.226068 -0.043397 0.731000 64 71 89
0.227213 -0.043159 0.727000 16 23 39
0.228332 -0.042922 0.723000 9 17 30
0.229743 -0.042744 0.720000 8 18 30
0.230813 -0.042506 0.716000 3 16 25
0.232508 -0.042387 0.714000 4 17 26
0.233861 -0.042209 0.711000 6 15 22
0.234862 -0.041972 0.707000 7 14 22
0.236172 -0.041794 0.704000 8 15 23
0.237462 -0.041616 0.701000 7 16 23
0.239075 -0.041497 0.699000 7 16 25
0.240675 -0.041378 0.697000 5 14 23
0.242261 -0.041259 0.695000 6 17 23
0.243835 -0.041141 0.693000 5 16 22
0.245750 -0.041081 0.692000 8 15 21
0.246943 -0.040903 0.689000 6 13 21
0.248115 -0.040725 0.686000 5 14 21
0.249633 -0.040606 0.684000 5 14 21
0.250769 -0.040428 0.681000 5 12 18
0.252258 -0.040310 0.679000 6 14 17
0.254108 -0.040250 0.678000 8 13 17
0.256329 -0.040250 0.678000 8 13 19
0.258551 -0.040250 0.678000 10 14 23
0.260003 -0.040132 0.676000 10 26 39
0.261442 -0.040013 0.674000 72 103 123
0.263259 -0.039953 0.673000 40 80 105
0.265070 -0.039894 0.672000 0 36 62
0.266874 -0.039835 0.671000 9 31 55
0.269073 -0.039835 0.671000 0 15 31
0.271271 -0.039835 0.671000 1 15 26
0.273470 -0.039835 0.671000 3 13 22
0.275669 -0.039835 0.671000 3 12 19
0.277867 -0.039835 0.671000 5 14 21
0.280066 -0.039835 0.671000 6 13 21
0.282264 -0.039835 0.671000 7 12 18
0.284463 -0.039835 0.671000 6 11 17
0.286662 -0.039835 0.671000 9 12 17
0.288860 -0.039835 0.671000 8 11 16
0.291059 -0.039835 0.671000 5 10 13
0.293257 -0.039835 0.671000 4 12 15
0.295456 -0.039835 0.671000 6 14 17
0.297655 -0.039835 0.671000 5 12 18
0.300300 -0.039894 0.672000 10 15 21
0.302502 -0.039894 0.672000 15 20 26
0.305157 -0.039953 0.673000 16 24 27
0.307819 -0.040013 0.674000 10 20 22
0.310027 -0.040013 0.674000 15 24 31
0.311309 -0.039894 0.672000 15 28 37
0.312578 -0.039775 0.670000 9 30 47
0.313834 -0.039657 0.668000 97 129 150
0.314603 -0.039478 0.665000 140 180 205
0.315830 -0.039360 0.663000 123 165 190
0.317522 -0.039300 0.662000 112 149 175
0.319208 -0.039241 0.661000 106 137 165
0.320888 -0.039182 0.660000 105 130 150
0.323540 -0.039241 0.661000 110 133 151
0.325706 -0.039241 0.661000 107 128 145
-0.340821 -0.043014 0.767000 44 73 89
-0.335662 -0.042678 0.761000 64 91 108
-0.332730 -0.042622 0.760000 56 83 102
-0.330240 -0.042622 0.760000 39 68 86
-0.326887 -0.042509 0.758000 44 72 86
-0.323976 -0.042453 0.757000 54 76 90
-0.321071 -0.042397 0.756000 60 76 91
-0.317329 -0.042229 0.753000 63 79 94
-0.314444 -0.042173 0.752000 81 103 116
-0.310735 -0.042005 0.749000 67 93 106
-0.307458 -0.041892 0.747000 20 42 55
-0.303785 -0.041724 0.744000 10 27 37
-0.300133 -0.041556 0.741000 0 17 27
-0.296098 -0.041332 0.737000 0 18 28
-0.292487 -0.041163 0.734000 0 17 27
-0.287316 -0.040771 0.727000 7 27 38
-0.281798 -0.040322 0.719000 3 25 38
-0.277111 -0.039986 0.713000 0 24 39
-0.272847 -0.039705 0.708000 0 27 44
-0.269381 -0.039537 0.705000 7 36 54
-0.266692 -0.039481 0.704000 29 60 88
-0.264386 -0.039481 0.704000 124 163 192
-0.262824 -0.039593 0.706000 112 159 187
-0.261986 -0.039817 0.710000 121 171 198
-0.261489 -0.040098 0.715000 96 141 170
-0.261320 -0.040434 0.721000 33 70 97
-0.260754 -0.040715 0.726000 41 72 93
-0.260510 -0.041051 0.732000 39 66 83
-0.259522 -0.041276 0.736000 34 60 77
-0.258857 -0.041556 0.741000 27 53 70
-0.258160 -0.041836 0.746000 44 70 87
-0.257087 -0.042061 0.750000 39 65 82
-0.255987 -0.042285 0.754000 26 49 67
-0.254862 -0.042509 0.758000 23 46 62
-0.253710 -0.042734 0.762000 28 49 66
-0.253521 -0.043126 0.769000 32 53 70
-0.254265 -0.043687 0.779000 30 51 70
-0.255267 -0.044304 0.790000 31 54 70
-0.254597 -0.044640 0.796000 35 58 74
-0.253889 -0.044977 0.802000 42 65 83
-0.252514 -0.045201 0.806000 47 69 90
-0.249873 -0.045201 0.806000 50 72 95
-0.245698 -0.044921 0.801000 48 72 96
-0.239432 -0.044248 0.789000 52 76 100
-0.233245 -0.043575 0.777000 52 77 99
-0.229511 -0.043351 0.773000 54 82 103
-0.224629 -0.042902 0.765000 27 62 84
-0.221252 -0.042734 0.762000 9 47 70
-0.218468 -0.042678 0.761000 17 51 78
-0.216258 -0.042734 0.762000 41 72 100
-0.214323 -0.042846 0.764000 12 43 71
-0.212097 -0.042902 0.765000 0 32 59
-0.209864 -0.042958 0.766000 0 29 53
-0.208166 -0.043126 0.769000 11 39 61
-0.206716 -0.043351 0.773000 4 31 52
-0.240107 -0.050978 0.909000 7 32 54
-0.237129 -0.050978 0.909000 9 34 56
-0.234923 -0.051146 0.912000 9 33 57
-0.233206 -0.051426 0.917000 15 39 67
-0.231206 -0.051651 0.921000 49 73 107
-0.229675 -0.051987 0.927000 92 119 148
-0.228349 -0.052380 0.934000 85 113 135
-0.226977 -0.052772 0.941000 86 113 132
-0.225321 -0.053109 0.947000 65 92 109
-0.223626 -0.053445 0.953000 72 97 117
-0.221660 -0.053726 0.958000 81 105 129
-0.219434 -0.053950 0.962000 78 104 127
-0.217855 -0.054342 0.969000 79 106 127
-0.215788 -0.054623 0.974000 81 112 133
-0.213906 -0.054959 0.980000 85 116 137
-0.212200 -0.055352 0.987000 89 120 141
-0.210660 -0.055801 0.995000 93 123 147
-0.209067 -0.056249 1.003000 97 129 152
-0.207217 -0.056642 1.010000 101 133 156
-0.206129 -0.057259 1.021000 104 139 161
-0.204769 -0.057819 1.031000 110 146 168
-0.203149 -0.058324 1.040000 112 147 169
-0.201470 -0.058829 1.049000 115 149 174
-0.199921 -0.059390 1.059000 108 145 171
-0.197935 -0.059838 1.067000 111 148 174
-0.195532 -0.060175 1.073000 89 123 150
-0.193090 -0.060511 1.079000 81 113 138
-0.190433 -0.060792 1.084000 92 120 142
-0.187398 -0.060960 1.087000 102 129 146
-0.184175 -0.061072 1.089000 120 151 171
-0.181436 -0.061353 1.094000 143 188 219
-0.178177 -0.061465 1.096000 140 190 227
-0.175223 -0.061689 1.100000 149 195 231
-0.171774 -0.061745 1.101000 134 180 216
-0.166334 -0.061072 1.089000 97 145 181
-0.160225 -0.060119 1.072000 62 111 144
-0.153350 -0.058829 1.049000 48 98 133
-0.143962 -0.057819 1.031000 50 103 134
-0.134411 -0.056642 1.010000 60 106 139
-0.129804 -0.056081 1.000000 20 80 108
-0.024884 -0.033761 0.602000 174 218 253
-0.022912 -0.033761 0.602000 164 209 242
-0.020905 -0.033705 0.601000 165 211 244
-0.018998 -0.033817 0.603000 162 207 238
-0.016966 -0.033705 0.601000 157 202 233
-0.014972 -0.033649 0.600000 156 201 230
-0.013006 -0.033649 0.600000 154 199 228
-0.011040 -0.033649 0.600000 154 200 226
-0.009059 -0.033593 0.599000 156 202 228
-0.007084 -0.033536 0.598000 154 201 227
-0.005125 -0.033536 0.598000 153 200 226
-0.003160 -0.033480 0.597000 155 201 227
-0.001202 -0.033424 0.596000 130 176 200
0.000749 -0.033368 0.595000 137 181 206
0.002694 -0.033312 0.594000 148 190 214
0.004633 -0.033256 0.593000 162 202 227
0.006565 -0.033200 0.592000 174 211 237
0.008505 -0.033200 0.592000 172 213 235
0.010427 -0.033144 0.591000 173 215 237
0.012342 -0.033088 0.590000 171 213 238
0.014275 -0.033088 0.590000 167 208 236
0.016181 -0.033032 0.589000 167 211 236
0.018049 -0.032920 0.587000 169 211 236
0.019973 -0.032920 0.587000 165 205 231
0.021933 -0.032976 0.588000 162 199 226
0.023941 -0.033088 0.590000 146 181 209
0.025962 -0.033200 0.592000 128 163 193
0.027996 -0.033312 0.594000 101 136 166
0.029993 -0.033368 0.595000 65 96 125
0.032050 -0.033480 0.597000 40 65 95
0.034063 -0.033536 0.598000 13 34 61
0.036625 -0.034097 0.608000 9 24 53
0.038998 -0.034434 0.614000 11 24 56
0.041210 -0.034602 0.617000 5 26 57
0.043862 -0.035107 0.626000 31 58 88
0.046060 -0.035219 0.628000 38 67 99
0.048271 -0.035331 0.630000 106 137 168
0.050495 -0.035443 0.632000 55 84 116
0.052815 -0.035611 0.635000 3 28 59
0.055069 -0.035724 0.637000 3 26 57
0.057336 -0.035836 0.639000 0 12 41
0.059615 -0.035948 0.641000 25 47 70
0.061812 -0.036004 0.642000 80 100 124
0.063916 -0.036004 0.642000 64 86 109
0.066019 -0.036004 0.642000 64 89 111
0.068123 -0.036004 0.642000 62 87 109
0.078321 -0.040154 0.716000 62 89 110
0.080667 -0.040154 0.716000 61 88 109
0.083129 -0.040210 0.717000 67 94 115
0.085717 -0.040322 0.719000 80 108 129
0.088195 -0.040378 0.720000 89 117 139
0.090806 -0.040490 0.722000 96 124 146
0.093429 -0.040603 0.724000 95 125 149
0.096066 -0.040715 0.726000 92 122 146
0.098581 -0.040771 0.727000 93 124 145
0.101379 -0.040939 0.730000 96 124 146
0.104056 -0.041051 0.732000 97 125 147
0.106890 -0.041220 0.735000 99 124 146
0.109596 -0.041332 0.737000 99 124 146
0.112467 -0.041500 0.740000 99 124 146
0.115202 -0.041612 0.742000 99 124 146
0.117950 -0.041724 0.744000 102 127 149
0.120550 -0.041780 0.745000 104 126 149
0.123156 -0.041836 0.746000 103 125 146
0.125937 -0.041949 0.748000 103 125 146
0.128903 -0.042117 0.751000 101 123 144
0.131714 -0.042229 0.753000 104 126 147
0.134715 -0.042397 0.756000 102 124 145
0.137555 -0.042509 0.758000 103 125 146
0.140409 -0.042622 0.760000 99 121 142
0.143087 -0.042678 0.761000 104 127 145
0.145772 -0.042734 0.762000 100 123 141
0.141766 -0.037686 0.672000 103 122 136
0.144182 -0.037742 0.673000 106 122 137
0.146604 -0.037799 0.674000 10 22 38
0.148813 -0.037799 0.674000 37 44 60
0.151021 -0.037799 0.674000 111 117 131
0.153002 -0.037742 0.673000 84 90 104
0.154977 -0.037686 0.672000 45 53 66
0.156711 -0.037574 0.670000 17 26 41
0.158432 -0.037462 0.668000 13 26 42
0.160380 -0.037406 0.667000 9 24 43
0.162078 -0.037294 0.665000 11 28 48
0.164257 -0.037294 0.665000 10 28 48
0.166186 -0.037238 0.664000 9 27 47
0.168615 -0.037294 0.665000 4 25 42
0.170537 -0.037238 0.664000 1 24 42
0.172713 -0.037238 0.664000 24 50 67
0.175152 -0.037294 0.665000 82 105 123
0.177064 -0.037238 0.664000 98 119 138
0.179240 -0.037238 0.664000 40 57 77
0.181415 -0.037238 0.664000 25 40 59
0.183315 -0.037182 0.663000 34 42 63
0.185487 -0.037182 0.663000 40 45 65
0.225213 -0.041724 0.744000 33 44 62
0.226121 -0.041444 0.739000 26 33 52
0.226996 -0.041163 0.734000 59 64 83
0.227838 -0.040883 0.729000 10 16 30
0.228963 -0.040659 0.725000 9 15 27
0.230063 -0.040434 0.721000 9 16 24
0.231136 -0.040210 0.717000 6 13 19
0.232834 -0.040098 0.715000 8 16 19
0.233861 -0.039874 0.711000 9 14 20
0.235194 -0.039705 0.708000 8 13 19
0.236507 -0.039537 0.705000 9 14 20
0.237801 -0.039369 0.702000 9 14 20
0.239759 -0.039313 0.701000 10 15 21
0.241020 -0.039145 0.698000 7 14 20
0.242958 -0.039088 0.697000 6 13 19
0.244890 -0.039032 0.696000 6 13 19
0.246816 -0.038976 0.695000 9 14 20
0.248376 -0.038864 0.693000 7 14 20
0.249562 -0.038696 0.690000 5 14 21
0.250728 -0.038528 0.687000 7 14 22
0.251506 -0.038303 0.683000 10 17 23
0.253001 -0.038191 0.681000 12 17 21
0.254857 -0.038135 0.680000 19 26 32
0.256707 -0.038079 0.679000 10 17 25
0.258551 -0.038023 0.678000 8 22 33
0.260388 -0.037967 0.677000 62 88 103
0.262218 -0.037911 0.676000 40 76 98
0.263651 -0.037799 0.674000 3 43 68
0.265465 -0.037742 0.673000 11 43 66
0.267670 -0.037742 0.673000 0 18 35
0.269474 -0.037686 0.672000 1 15 26
0.271676 -0.037686 0.672000 0 13 19
0.273878 -0.037686 0.672000 4 14 16
0.276079 -0.037686 0.672000 5 15 17
0.278281 -0.037686 0.672000 4 14 16
0.280483 -0.037686 0.672000 4 14 16
0.282685 -0.037686 0.672000 5 15 17
0.284887 -0.037686 0.672000 3 12 17
0.287089 -0.037686 0.672000 2 11 16
0.289291 -0.037686 0.672000 3 12 17
0.291059 -0.037630 0.671000 3 12 17
0.293257 -0.037630 0.671000 3 10 16
0.295456 -0.037630 0.671000 6 11 15
0.297655 -0.037630 0.671000 7 15 18
0.299853 -0.037630 0.671000 9 19 21
0.302052 -0.037630 0.671000 12 23 25
0.303797 -0.037574 0.670000 10 21 25
0.305992 -0.037574 0.670000 18 25 31
0.307728 -0.037518 0.669000 11 25 36
0.308993 -0.037406 0.667000 72 94 108
0.310245 -0.037294 0.665000 142 173 193
0.311485 -0.037182 0.663000 142 179 205
0.312711 -0.037070 0.661000 112 154 179
0.314400 -0.037013 0.660000 100 141 163
0.316563 -0.037013 0.660000 108 139 160
0.318726 -0.037013 0.660000 112 133 154
0.320888 -0.037013 0.660000 114 132 146
0.323051 -0.037013 0.660000 147 165 179
0.325213 -0.037013 0.660000 156 172 185
0.327872 -0.037070 0.661000 149 163 176
-0.353630 -0.041709 0.790000 45 88 105
-0.343487 -0.040811 0.773000 43 80 99
-0.336985 -0.040336 0.764000 46 77 98
-0.333606 -0.040230 0.762000 22 48 71
-0.331109 -0.040230 0.762000 32 56 82
-0.328181 -0.040178 0.761000 47 75 97
-0.325260 -0.040125 0.760000 55 77 100
-0.321920 -0.040019 0.758000 68 86 106
-0.318594 -0.039914 0.756000 62 81 96
-0.315280 -0.039808 0.754000 86 110 122
-0.312395 -0.039755 0.753000 82 109 120
-0.308693 -0.039597 0.750000 34 58 70
-0.305010 -0.039438 0.747000 31 49 63
-0.300943 -0.039227 0.743000 23 40 48
-0.296098 -0.038911 0.737000 22 37 44
-0.292487 -0.038752 0.734000 20 35 42
-0.287316 -0.038383 0.727000 15 30 37
-0.281798 -0.037960 0.719000 3 17 26
-0.277111 -0.037643 0.713000 6 20 31
-0.272847 -0.037379 0.708000 10 24 37
-0.269381 -0.037221 0.705000 3 19 32
-0.266692 -0.037168 0.704000 0 18 42
-0.264386 -0.037168 0.704000 58 84 109
-0.262451 -0.037221 0.705000 91 127 151
-0.261617 -0.037432 0.709000 62 104 129
-0.261123 -0.037696 0.714000 59 101 126
-0.260958 -0.038013 0.720000 0 33 55
-0.260754 -0.038330 0.726000 0 29 46
-0.260154 -0.038594 0.731000 0 28 42
-0.259170 -0.038805 0.735000 0 26 41
-0.258857 -0.039122 0.741000 0 24 39
-0.257814 -0.039333 0.745000 0 26 41
-0.257087 -0.039597 0.750000 1 29 43
-0.255648 -0.039755 0.753000 0 24 39
-0.254189 -0.039914 0.756000 1 27 44
-0.253377 -0.040178 0.761000 3 29 46
-0.255237 -0.042131 0.798000 4 27 43
-0.253572 -0.042289 0.801000 1 27 44
-0.251887 -0.042448 0.804000 4 31 48
-0.249563 -0.042501 0.805000 5 32 49
-0.243245 -0.041867 0.793000 6 31 51
-0.237005 -0.041234 0.781000 5 30 50
-0.231144 -0.040653 0.770000 11 34 52
-0.227433 -0.040442 0.766000 6 32 49
-0.223749 -0.040230 0.762000 1 26 46
-0.220671 -0.040125 0.760000 10 32 55
-0.218181 -0.040125 0.760000 9 29 54
-0.215975 -0.040178 0.761000 8 28 55
-0.213762 -0.040230 0.762000 20 44 70
-0.211819 -0.040336 0.764000 77 105 129
-0.209590 -0.040389 0.765000 105 134 152
-0.208166 -0.040600 0.769000 79 108 126
-0.206716 -0.040811 0.773000 53 78 100
-0.205768 -0.041128 0.779000 20 42 65
-0.205042 -0.041498 0.786000 10 30 54
-0.204012 -0.041814 0.792000 11 31 55
-0.202180 -0.041973 0.795000 11 31 55
-0.231206 -0.048625 0.921000 14 31 57
-0.229922 -0.048995 0.928000 11 32 61
-0.228593 -0.049364 0.935000 22 44 68
-0.227459 -0.049786 0.943000 86 113 132
-0.225559 -0.050050 0.948000 84 113 131
-0.223626 -0.050314 0.953000 88 116 137
-0.221660 -0.050578 0.958000 73 101 123
-0.219434 -0.050790 0.962000 76 104 128
-0.217631 -0.051106 0.968000 81 107 130
-0.215567 -0.051370 0.973000 82 110 132
-0.213688 -0.051687 0.979000 86 114 136
-0.211985 -0.052057 0.986000 87 118 139
-0.210237 -0.052426 0.993000 92 124 145
-0.208651 -0.052849 1.001000 98 130 153
-0.206807 -0.053218 1.008000 98 133 155
-0.205927 -0.053852 1.020000 103 138 160
-0.205167 -0.054538 1.033000 112 147 169
-0.203931 -0.055119 1.044000 107 143 169
-0.202814 -0.055752 1.056000 89 125 151
-0.201053 -0.056228 1.065000 75 111 135
-0.198862 -0.056597 1.072000 86 122 146
-0.196261 -0.056861 1.077000 65 101 127
-0.193627 -0.057125 1.082000 52 82 106
-0.190609 -0.057283 1.085000 114 135 152
-0.187398 -0.057389 1.087000 109 126 133
-0.184175 -0.057495 1.089000 86 113 130
-0.181104 -0.057653 1.092000 67 112 143
-0.177689 -0.057706 1.093000 61 114 154
-0.174585 -0.057864 1.096000 60 112 152
-0.024926 -0.031836 0.603000 170 215 248
-0.022950 -0.031836 0.603000 166 211 242
-0.020974 -0.031836 0.603000 163 208 239
-0.018998 -0.031836 0.603000 163 208 239
-0.017023 -0.031836 0.603000 169 212 244
-0.015022 -0.031783 0.602000 164 207 239
-0.013028 -0.031730 0.601000 164 205 235
-0.011040 -0.031677 0.600000 162 203 233
-0.009044 -0.031572 0.598000 164 203 234
-0.007073 -0.031519 0.597000 165 206 234
-0.005108 -0.031466 0.596000 158 199 227
-0.003150 -0.031414 0.595000 159 200 230
-0.001198 -0.031361 0.594000 150 189 220
0.000748 -0.031361 0.594000 139 178 209
0.002690 -0.031308 0.593000 134 171 200
0.004633 -0.031308 0.593000 118 152 180
0.006565 -0.031255 0.592000 107 137 165
0.008505 -0.031255 0.592000 90 121 150
0.010427 -0.031202 0.591000 80 109 141
0.012363 -0.031202 0.591000 71 100 134
0.014275 -0.031150 0.590000 48 77 109
0.016181 -0.031097 0.589000 21 48 78
0.018080 -0.031044 0.588000 10 33 64
0.020041 -0.031097 0.589000 0 17 48
0.022083 -0.031255 0.592000 4 20 53
0.026620 -0.032047 0.607000 5 24 56
0.028703 -0.032153 0.609000 7 26 56
0.030699 -0.032153 0.609000 9 23 50
0.032587 -0.032047 0.607000 13 20 46
0.034746 -0.032205 0.610000 14 20 42
0.036986 -0.032417 0.614000 12 18 42
0.039315 -0.032681 0.619000 8 15 43
0.041611 -0.032892 0.623000 0 18 49
0.043862 -0.033050 0.626000 86 115 147
0.046060 -0.033156 0.628000 75 106 135
0.048271 -0.033261 0.630000 10 41 69
0.050495 -0.033367 0.632000 2 28 55
0.052815 -0.033525 0.635000 0 15 42
0.055069 -0.033631 0.637000 57 77 102
0.057336 -0.033737 0.639000 81 103 127
0.059615 -0.033842 0.641000 77 101 125
0.061812 -0.033895 0.642000 70 94 118
0.064015 -0.033948 0.643000 65 91 114
0.073732 -0.037855 0.717000 61 87 110
0.075975 -0.037802 0.716000 59 87 109
0.078321 -0.037802 0.716000 58 86 108
0.080667 -0.037802 0.716000 60 88 110
0.083129 -0.037855 0.717000 67 93 116
0.085597 -0.037907 0.718000 75 101 124
0.088195 -0.038013 0.720000 84 112 136
0.090806 -0.038119 0.722000 92 120 144
0.093300 -0.038171 0.723000 96 123 150
0.095934 -0.038277 0.725000 91 121 147
0.098581 -0.038383 0.727000 93 123 147
0.101241 -0.038488 0.729000 95 123 147
0.103914 -0.038594 0.731000 96 124 146
0.106745 -0.038752 0.734000 97 123 146
0.109596 -0.038911 0.737000 98 124 147
0.112315 -0.039016 0.739000 98 124 147
0.115047 -0.039122 0.741000 98 124 147
0.117792 -0.039227 0.743000 101 125 149
0.120388 -0.039280 0.744000 101 125 149
0.123156 -0.039386 0.746000 101 125 149
0.125937 -0.039491 0.748000 104 126 150
0.128731 -0.039597 0.750000 105 127 151
0.131714 -0.039755 0.753000 102 124 148
0.134715 -0.039914 0.756000 104 126 149
0.137555 -0.040019 0.758000 102 124 147
0.140593 -0.040178 0.761000 103 125 148
0.143275 -0.040230 0.762000 101 123 144
0.145963 -0.040283 0.763000 105 127 148
0.148658 -0.040336 0.764000 101 123 144
0.142399 -0.035637 0.675000 108 120 136
0.144610 -0.035637 0.675000 112 121 136
0.147039 -0.035690 0.676000 94 101 117
0.149254 -0.035690 0.676000 22 28 42
0.151469 -0.035690 0.676000 22 26 37
0.153457 -0.035637 0.675000 4 6 18
0.155438 -0.035584 0.674000 10 14 25
0.157179 -0.035479 0.672000 5 11 23
0.159143 -0.035426 0.671000 13 21 32
0.160861 -0.035320 0.669000 15 25 37
0.162809 -0.035268 0.668000 14 26 38
0.164751 -0.035215 0.667000 10 24 35
0.166686 -0.035162 0.666000 14 26 40
0.168615 -0.035109 0.665000 13 25 39
0.170794 -0.035109 0.665000 13 25 41
0.172973 -0.035109 0.665000 14 27 44
0.174888 -0.035056 0.664000 12 29 47
0.177064 -0.035056 0.664000 4 22 44
0.178970 -0.035004 0.663000 2 20 44
0.181142 -0.035004 0.663000 31 51 76
0.183038 -0.034951 0.662000 83 105 128
0.184927 -0.034898 0.661000 75 97 118
0.186810 -0.034845 0.660000 29 46 66
0.188973 -0.034845 0.660000 42 53 73
0.222775 -0.039280 0.744000 41 44 59
0.224607 -0.039174 0.742000 118 120 132
0.226121 -0.039016 0.739000 131 135 146
0.226996 -0.038752 0.734000 129 133 144
0.228151 -0.038541 0.730000 87 94 104
0.229279 -0.038330 0.726000 11 18 28
0.230382 -0.038119 0.722000 7 14 24
0.231458 -0.037907 0.718000 8 15 23
0.233159 -0.037802 0.716000 8 15 21
0.234190 -0.037591 0.712000 7 14 22
0.235526 -0.037432 0.709000 6 13 23
0.236843 -0.037274 0.706000 5 12 20
0.238478 -0.037168 0.704000 6 10 19
0.240101 -0.037063 0.702000 7 12 18
0.242056 -0.037010 0.701000 10 13 20
0.244004 -0.036957 0.700000 11 14 19
0.245946 -0.036904 0.699000 14 17 22
0.247881 -0.036851 0.698000 11 16 20
0.249451 -0.036746 0.696000 12 19 25
0.250647 -0.036587 0.693000 11 18 26
0.251823 -0.036429 0.690000 14 19 25
0.252242 -0.036165 0.685000 15 20 26
0.253744 -0.036060 0.683000 11 18 24
0.255232 -0.035954 0.681000 9 20 26
0.257085 -0.035901 0.680000 3 18 25
0.258551 -0.035796 0.678000 60 86 103
0.260388 -0.035743 0.677000 62 94 117
0.262218 -0.035690 0.676000 3 37 62
0.264042 -0.035637 0.675000 1 35 60
0.265859 -0.035584 0.674000 5 30 52
0.268067 -0.035584 0.674000 0 15 29
0.270276 -0.035584 0.674000 2 12 22
0.272080 -0.035532 0.673000 5 12 20
0.274285 -0.035532 0.673000 5 12 18
0.276490 -0.035532 0.673000 4 11 17
0.278695 -0.035532 0.673000 4 12 15
0.280901 -0.035532 0.673000 4 12 15
0.283106 -0.035532 0.673000 4 12 15
0.284887 -0.035479 0.672000 4 12 15
0.287089 -0.035479 0.672000 4 12 15
0.289291 -0.035479 0.672000 5 13 16
0.291059 -0.035426 0.671000 5 12 20
0.293257 -0.035426 0.671000 4 11 17
0.295016 -0.035373 0.670000 5 13 16
0.296767 -0.035320 0.669000 9 14 17
0.298513 -0.035268 0.668000 9 17 19
0.300251 -0.035215 0.667000 12 23 29
0.301983 -0.035162 0.666000 3 20 28
0.303709 -0.035109 0.665000 45 69 81
0.305428 -0.035056 0.664000 132 163 181
0.307140 -0.035004 0.663000 151 186 206
0.308379 -0.034898 0.661000 123 159 183
0.310075 -0.034845 0.660000 112 148 172
0.312238 -0.034845 0.660000 104 140 162
0.313924 -0.034792 0.659000 106 134 155
0.316083 -0.034792 0.659000 108 130 144
0.318243 -0.034792 0.659000 142 154 168
0.320888 -0.034845 0.660000 151 163 175
0.323051 -0.034845 0.660000 149 161 173
0.325706 -0.034898 0.661000 148 161 170
0.328368 -0.034951 0.662000 150 163 172
-0.368844 -0.040500 0.818000 123 173 196
-0.349708 -0.038965 0.787000 94 135 157
-0.341837 -0.038371 0.775000 78 110 133
-0.336233 -0.038024 0.768000 73 101 125
-0.332847 -0.037925 0.766000 101 127 152
-0.328612 -0.037727 0.762000 94 125 146
-0.325688 -0.037678 0.761000 83 114 132
-0.322345 -0.037579 0.759000 60 96 110
-0.319015 -0.037480 0.757000 70 108 119
-0.315698 -0.037381 0.755000 83 120 129
-0.312810 -0.037331 0.754000 74 103 111
-0.309516 -0.037232 0.752000 34 56 69
-0.305419 -0.037034 0.748000 25 47 61
-0.301348 -0.036836 0.744000 26 44 56
-0.296901 -0.036588 0.739000 22 39 49
-0.293284 -0.036440 0.736000 18 35 45
-0.287711 -0.036044 0.728000 18 35 43
-0.282582 -0.035697 0.721000 16 30 39
-0.277888 -0.035400 0.715000 16 30 39
-0.273618 -0.035153 0.710000 12 26 37
-0.269763 -0.034955 0.706000 9 23 34
-0.267071 -0.034905 0.705000 0 16 31
-0.264761 -0.034905 0.705000 4 27 45
-0.262451 -0.034905 0.705000 57 89 110
-0.261617 -0.035103 0.709000 39 77 98
-0.261489 -0.035400 0.715000 50 86 110
-0.261320 -0.035697 0.721000 15 46 67
-0.261472 -0.036044 0.728000 27 53 70
-0.260866 -0.036291 0.733000 30 53 67
-0.260580 -0.036588 0.739000 20 46 59
-0.259905 -0.036836 0.744000 13 39 52
-0.259198 -0.037083 0.749000 5 33 47
-0.258115 -0.037282 0.753000 6 34 48
-0.257006 -0.037480 0.757000 3 31 45
-0.255870 -0.037678 0.761000 5 32 49
-0.255374 -0.037975 0.767000 8 35 52
-0.255499 -0.038371 0.775000 7 34 51
-0.256876 -0.038965 0.787000 9 37 51
-0.256559 -0.039311 0.794000 9 38 54
-0.255557 -0.039559 0.799000 11 40 56
-0.254205 -0.039757 0.803000 16 45 63
-0.252201 -0.039856 0.805000 19 48 66
-0.248943 -0.039757 0.803000 21 50 68
-0.242938 -0.039212 0.792000 28 57 75
-0.236094 -0.038519 0.778000 37 64 85
-0.230843 -0.038074 0.769000 53 80 101
-0.227433 -0.037925 0.766000 68 95 116
-0.223749 -0.037727 0.762000 90 115 137
-0.220671 -0.037628 0.760000 117 141 165
-0.217894 -0.037579 0.759000 126 150 176
-0.215691 -0.037628 0.760000 127 155 179
-0.213762 -0.037727 0.762000 109 141 162
-0.211819 -0.037826 0.764000 108 146 165
-0.209590 -0.037876 0.765000 105 144 161
-0.208437 -0.038123 0.770000 103 142 159
-0.208856 -0.038668 0.781000 103 140 159
-0.208674 -0.039113 0.790000 104 137 156
-0.208172 -0.039509 0.798000 108 139 159
-0.205815 -0.039559 0.799000 103 134 154
-0.203451 -0.039609 0.800000 72 100 122
-0.201081 -0.039658 0.801000 17 45 69
-0.198457 -0.039658 0.801000 12 36 64
-0.196810 -0.039856 0.805000 14 35 62
-0.227700 -0.046738 0.944000 6 31 53
-0.226035 -0.047035 0.950000 14 41 62
-0.224330 -0.047332 0.956000 76 104 125
-0.221892 -0.047481 0.959000 75 103 125
-0.219434 -0.047629 0.962000 73 101 125
-0.217631 -0.047926 0.968000 79 107 131
-0.215567 -0.048174 0.973000 83 111 133
-0.213688 -0.048471 0.979000 85 116 137
-0.211555 -0.048718 0.984000 87 118 138
-0.209602 -0.049016 0.990000 90 123 142
-0.207817 -0.049362 0.997000 97 130 149
-0.206397 -0.049808 1.006000 97 129 150
-0.205523 -0.050402 1.018000 91 121 145
-0.205564 -0.051244 1.035000 79 109 133
-0.204712 -0.051887 1.048000 85 119 146
-0.203967 -0.052580 1.062000 69 103 130
-0.202375 -0.053075 1.072000 39 71 94
-0.199790 -0.053323 1.077000 39 73 98
-0.196990 -0.053521 1.081000 49 85 111
-0.194164 -0.053719 1.085000 61 91 115
-0.190784 -0.053769 1.086000 85 103 117
-0.187398 -0.053818 1.087000 97 105 107
-0.183837 -0.053818 1.087000 83 101 111
-0.180275 -0.053818 1.087000 64 101 127
-0.177364 -0.054016 1.091000 48 97 130
-0.173789 -0.054016 1.091000 50 100 135
-0.077023 -0.031786 0.642000 38 68 92
-0.024926 -0.029855 0.603000 20 51 80
-0.022950 -0.029855 0.603000 25 56 87
-0.021009 -0.029904 0.604000 88 121 152
-0.019030 -0.029904 0.604000 27 57 91
-0.017023 -0.029855 0.603000 66 96 130
-0.015022 -0.029805 0.602000 14 43 77
-0.013028 -0.029756 0.601000 11 40 74
-0.011022 -0.029657 0.599000 7 33 66
-0.009029 -0.029558 0.597000 17 41 75
-0.007061 -0.029508 0.596000 24 43 73
-0.005091 -0.029409 0.594000 23 40 68
-0.003134 -0.029310 0.592000 7 28 57
-0.001192 -0.029261 0.591000 34 57 88
0.000744 -0.029261 0.591000 82 107 137
0.002681 -0.029261 0.591000 76 102 129
0.004617 -0.029261 0.591000 80 104 130
0.006554 -0.029261 0.591000 91 113 137
0.008490 -0.029261 0.591000 94 116 140
0.010427 -0.029261 0.591000 91 112 139
0.012363 -0.029261 0.591000 93 114 141
0.014300 -0.029261 0.591000 47 67 94
0.016263 -0.029310 0.592000 10 26 52
0.018295 -0.029459 0.595000 8 20 44
0.020347 -0.029607 0.598000 12 19 45
0.025118 -0.030647 0.619000 16 20 49
0.026883 -0.030350 0.613000 11 18 46
0.028986 -0.030449 0.615000 7 18 40
0.031001 -0.030449 0.615000 10 18 37
0.033070 -0.030499 0.616000 13 18 38
0.035145 -0.030548 0.617000 10 17 36
0.037287 -0.030647 0.619000 0 12 32
0.039443 -0.030746 0.621000 45 72 93
0.041611 -0.030845 0.623000 96 127 155
0.043792 -0.030944 0.625000 12 43 72
0.046060 -0.031093 0.628000 0 26 55
0.048271 -0.031192 0.630000 0 16 40
0.050495 -0.031291 0.632000 56 84 106
0.052732 -0.031390 0.634000 82 110 131
0.055069 -0.031538 0.637000 78 105 126
0.057336 -0.031637 0.639000 80 102 125
0.066963 -0.035648 0.720000 77 103 126
0.069226 -0.035598 0.719000 73 101 125
0.071482 -0.035549 0.718000 68 96 120
0.073732 -0.035499 0.717000 64 94 118
0.076081 -0.035499 0.717000 63 91 113
0.078321 -0.035450 0.716000 61 89 111
0.080667 -0.035450 0.716000 61 89 111
0.083129 -0.035499 0.717000 65 91 114
0.085597 -0.035549 0.718000 74 98 122
0.088072 -0.035598 0.719000 85 111 136
0.090680 -0.035697 0.721000 94 120 145
0.093171 -0.035747 0.722000 96 122 149
0.095802 -0.035846 0.724000 96 124 148
0.098445 -0.035945 0.726000 96 124 148
0.101102 -0.036044 0.728000 96 122 145
0.103771 -0.036143 0.730000 96 122 145
0.106600 -0.036291 0.733000 95 123 147
0.109299 -0.036390 0.735000 97 124 151
0.112163 -0.036539 0.738000 98 125 152
0.114892 -0.036638 0.740000 100 126 153
0.117633 -0.036737 0.742000 101 127 152
0.120388 -0.036836 0.744000 102 126 152
0.122991 -0.036885 0.745000 101 125 151
0.125769 -0.036984 0.747000 101 125 151
0.128731 -0.037133 0.750000 102 126 150
0.131714 -0.037282 0.753000 102 127 149
0.134715 -0.037430 0.756000 99 124 144
0.137737 -0.037579 0.759000 102 124 145
0.140593 -0.037678 0.761000 100 121 142
0.143463 -0.037777 0.763000 106 123 143
0.146154 -0.037826 0.764000 107 122 143
0.148852 -0.037876 0.765000 110 125 144
0.151359 -0.037876 0.765000 114 125 143
0.144825 -0.033469 0.676000 14 13 29
0.147257 -0.033519 0.677000 17 16 30
0.149475 -0.033519 0.677000 18 17 31
0.151693 -0.033519 0.677000 21 21 31
0.153684 -0.033469 0.676000 24 24 32
0.155669 -0.033420 0.675000 13 16 23
0.157647 -0.033370 0.674000 11 14 23
0.159381 -0.033271 0.672000 13 17 26
0.161342 -0.033222 0.671000 19 26 34
0.163053 -0.033123 0.669000 14 21 29
0.164998 -0.033073 0.668000 13 22 29
0.166937 -0.033024 0.667000 12 21 30
0.168869 -0.032974 0.666000 19 28 35
0.170794 -0.032925 0.665000 21 30 37
0.172973 -0.032925 0.665000 24 33 40
0.174888 -0.032875 0.664000 18 28 37
0.176797 -0.032826 0.663000 13 26 35
0.178970 -0.032826 0.663000 11 25 38
0.180869 -0.032776 0.662000 8 24 39
0.182762 -0.032727 0.661000 11 28 46
0.184927 -0.032727 0.661000 1 24 42
0.186810 -0.032677 0.660000 0 27 44
0.188686 -0.032628 0.659000 53 80 99
0.190846 -0.032628 0.659000 78 98 122
0.222775 -0.036836 0.744000 145 151 163
0.224607 -0.036737 0.742000 142 146 157
0.225815 -0.036539 0.738000 140 149 158
0.226686 -0.036291 0.733000 149 159 169
0.227838 -0.036093 0.729000 146 158 170
0.228963 -0.035895 0.725000 15 27 39
0.230063 -0.035697 0.721000 5 15 27
0.231458 -0.035549 0.718000 6 16 25
0.233159 -0.035450 0.716000 8 15 23
0.234518 -0.035301 0.713000 6 15 24
0.236190 -0.035202 0.711000 7 17 26
0.237514 -0.035054 0.708000 10 19 28
0.239495 -0.035004 0.707000 10 19 28
0.241127 -0.034905 0.705000 12 19 27
0.243092 -0.034855 0.704000 12 19 27
0.245050 -0.034806 0.703000 11 18 26
0.247002 -0.034756 0.702000 12 19 27
