ply
format ascii 1.0
element vertex 1214
property float x
property float y
property float z
property uchar red
property uchar green
property uchar blue
end_header
0.402569 -0.162534 0.286636 155 174 188
0.400777 -0.161906 0.284755 154 173 187
0.400035 -0.161414 0.282660 155 174 188
0.398246 -0.160787 0.280787 155 174 188
0.396459 -0.160162 0.278920 154 173 187
0.395719 -0.159672 0.276832 153 172 186
0.396025 -0.159315 0.274512 153 175 188
0.395284 -0.158824 0.272420 151 173 186
0.394544 -0.158333 0.270329 152 174 187
0.393803 -0.157842 0.268237 153 175 188
0.393063 -0.157351 0.266145 154 176 189
0.392323 -0.156860 0.264054 152 174 187
0.390544 -0.156241 0.262211 152 174 187
0.389805 -0.155750 0.260123 153 175 188
0.389065 -0.155260 0.258034 155 174 188
0.387291 -0.154643 0.256204 154 173 187
0.386553 -0.154154 0.254118 155 174 188
0.385814 -0.153664 0.252032 155 174 188
0.385076 -0.153175 0.249947 155 174 188
0.383307 -0.152562 0.248132 155 174 188
0.381540 -0.151950 0.246322 154 173 187
0.379776 -0.151340 0.244519 155 174 188
0.378013 -0.150731 0.242723 154 173 187
0.376253 -0.150124 0.240932 155 174 188
0.373469 -0.149398 0.239432 155 174 188
0.371714 -0.148794 0.237657 156 175 189
0.370984 -0.148310 0.235595 155 174 188
0.369232 -0.147708 0.233829 154 173 187
0.367483 -0.147108 0.232068 157 177 188
0.365735 -0.146509 0.230314 156 176 187
0.365009 -0.146028 0.228261 154 173 187
0.363265 -0.145431 0.226516 156 175 189
0.362539 -0.144950 0.224467 156 175 189
0.360798 -0.144355 0.222730 155 174 188
0.360074 -0.143875 0.220684 156 175 189
0.359349 -0.143395 0.218638 155 174 188
0.358625 -0.142915 0.216592 155 174 188
0.357901 -0.142434 0.214546 156 175 189
0.357176 -0.141954 0.212499 156 175 189
0.356452 -0.141474 0.210453 158 176 190
0.355728 -0.140994 0.208407 158 176 190
0.355003 -0.140513 0.206361 159 177 191
0.353273 -0.139926 0.204655 157 176 190
0.352550 -0.139446 0.202611 159 178 192
0.351827 -0.138967 0.200568 159 178 192
0.350101 -0.138382 0.198874 158 177 191
0.349378 -0.137903 0.196834 161 179 193
0.348656 -0.137425 0.194794 160 178 192
0.346934 -0.136843 0.193112 160 178 192
0.345215 -0.136262 0.191437 159 175 190
0.343497 -0.135683 0.189767 159 175 190
0.342778 -0.135207 0.187736 159 177 191
0.341064 -0.134630 0.186075 159 177 191
0.339352 -0.134055 0.184421 158 177 191
0.337642 -0.133481 0.182773 158 178 189
0.336926 -0.133006 0.180751 160 180 191
0.335220 -0.132434 0.179111 159 177 189
0.334505 -0.131960 0.177092 160 176 189
0.332801 -0.131391 0.175462 161 177 190
0.332088 -0.130918 0.173446 160 178 190
0.329401 -0.130256 0.172220 159 177 189
0.328689 -0.129784 0.170210 159 179 190
0.326993 -0.129219 0.168601 159 179 190
0.326283 -0.128748 0.166594 160 180 191
0.325573 -0.128277 0.164587 160 180 191
0.324862 -0.127806 0.162581 162 180 192
0.323172 -0.127245 0.160987 162 180 192
0.322462 -0.126775 0.158983 162 180 192
0.321753 -0.126304 0.156979 163 179 192
0.321044 -0.125834 0.154975 163 179 192
0.320334 -0.125364 0.152972 162 180 192
0.319625 -0.124894 0.150968 164 182 194
0.317942 -0.124337 0.149395 162 180 192
0.317234 -0.123868 0.147394 163 179 192
0.316526 -0.123398 0.145394 162 178 191
0.314847 -0.122845 0.143833 163 179 192
0.314140 -0.122376 0.141836 162 178 191
0.312464 -0.121825 0.140284 162 178 191
0.310790 -0.121275 0.138739 164 180 193
0.309119 -0.120727 0.137200 163 179 192
0.307450 -0.120180 0.135666 162 178 191
0.306747 -0.119714 0.133681 162 178 191
0.305081 -0.119169 0.132157 163 179 192
0.303417 -0.118626 0.130639 161 177 190
0.302717 -0.118161 0.128659 165 181 194
0.302016 -0.117696 0.126680 162 178 191
0.301315 -0.117232 0.124700 165 181 194
0.299657 -0.116692 0.123197 162 178 191
0.298957 -0.116228 0.121221 163 179 192
0.297302 -0.115690 0.119727 164 180 193
0.296603 -0.115227 0.117753 163 179 192
0.295905 -0.114764 0.115780 165 181 194
0.294254 -0.114229 0.114298 167 183 196
0.293556 -0.113767 0.112328 165 181 194
0.291909 -0.113234 0.110855 164 180 193
0.291212 -0.112772 0.108888 162 178 191
0.290516 -0.112311 0.106920 167 183 196
0.289819 -0.111849 0.104953 163 179 192
0.289123 -0.111387 0.102986 165 181 194
0.288426 -0.110925 0.101018 166 182 195
0.287730 -0.110464 0.099051 164 180 193
0.287034 -0.110002 0.097083 165 181 194
0.286337 -0.109540 0.095116 166 182 195
0.285641 -0.109078 0.093149 167 183 196
0.284944 -0.108617 0.091181 168 184 197
0.283309 -0.108093 0.089745 168 184 197
0.281677 -0.107570 0.088315 169 185 198
0.280046 -0.107048 0.086891 167 183 196
0.278418 -0.106529 0.085473 167 183 196
0.276792 -0.106010 0.084061 168 184 197
0.275167 -0.105493 0.082655 168 184 197
0.274477 -0.105036 0.080706 166 184 196
0.273787 -0.104578 0.078756 168 184 197
0.273097 -0.104121 0.076807 171 184 200
0.272408 -0.103663 0.074858 166 182 195
0.272645 -0.103261 0.072347 143 149 161
0.812171 -0.134629 -0.258738 103 92 98
0.810855 -0.133756 -0.262458 124 103 100
0.807689 -0.132777 -0.265036 132 109 103
0.808221 -0.132010 -0.269897 133 110 104
0.805060 -0.131033 -0.272463 129 109 102
0.803746 -0.130162 -0.276177 129 109 102
0.804271 -0.129391 -0.281056 123 102 97
0.801116 -0.128419 -0.283604 115 95 94
0.799802 -0.127547 -0.287317 102 84 84
0.797570 -0.126627 -0.290439 91 75 76
0.794425 -0.125662 -0.292960 63 51 53
0.792199 -0.124745 -0.296066 39 30 31
0.787234 -0.123693 -0.297364 20 18 19
0.784103 -0.122736 -0.299845 15 17 16
0.782799 -0.121872 -0.303529 13 19 19
0.781495 -0.121007 -0.307212 14 20 20
0.782920 -0.120272 -0.312734 16 22 22
0.784338 -0.119533 -0.318275 11 17 17
0.786657 -0.118832 -0.324453 8 13 16
0.790780 -0.118207 -0.331899 48 56 58
0.793079 -0.117492 -0.338131 68 78 79
0.796275 -0.116812 -0.345016 72 86 89
0.797653 -0.116046 -0.350669 69 86 93
0.796319 -0.115162 -0.354437 57 75 85
0.793184 -0.114203 -0.356931 144 166 177
0.791852 -0.113320 -0.360693 145 167 180
0.789621 -0.112401 -0.363811 145 171 184
0.645953 -0.057449 -0.540554 4 18 19
0.639719 -0.056675 -0.539071 5 17 17
0.636815 -0.055868 -0.540912 2 12 11
0.633914 -0.055065 -0.542742 3 12 9
0.628537 -0.054299 -0.542020 1 10 7
0.623997 -0.053528 -0.542117 7 13 11
0.619465 -0.052762 -0.542190 4 13 10
0.614942 -0.052002 -0.542239 3 12 9
0.611250 -0.051234 -0.543122 4 13 10
0.803954 -0.254641 0.449322 18 23 26
0.801753 -0.253744 0.446284 14 22 24
0.799554 -0.252849 0.443252 20 28 30
0.796230 -0.251770 0.440220 91 97 97
0.791783 -0.250509 0.437197 100 105 101
0.787343 -0.249252 0.434193 103 108 102
0.782909 -0.248000 0.431206 101 106 99
0.779605 -0.246935 0.428232 92 97 90
0.776305 -0.245872 0.425269 85 90 83
0.771888 -0.244631 0.422331 87 92 85
0.767478 -0.243394 0.419411 86 91 85
0.764193 -0.242342 0.416492 86 91 85
0.756441 -0.240576 0.413668 85 90 84
0.750935 -0.239176 0.410833 89 94 88
0.745437 -0.237781 0.408022 86 91 87
0.742179 -0.236745 0.405175 84 88 89
0.737810 -0.235537 0.402373 85 89 92
0.735674 -0.234683 0.399517 84 90 88
0.732428 -0.233655 0.396706 84 93 92
0.731407 -0.232979 0.393823 83 92 91
0.729277 -0.232129 0.390986 82 92 91
0.726041 -0.231108 0.388202 77 87 86
0.722809 -0.230090 0.385431 80 90 89
0.720687 -0.229246 0.382618 82 92 91
0.717463 -0.228233 0.379868 79 89 88
0.476561 -0.188325 0.376597 80 91 95
0.473585 -0.187477 0.374547 57 67 76
0.470612 -0.186631 0.372509 123 142 157
0.467644 -0.185788 0.370484 146 172 187
0.464680 -0.184948 0.368471 135 161 174
0.462813 -0.184273 0.366376 133 159 172
0.460948 -0.183599 0.364287 138 160 174
0.459085 -0.182926 0.362204 136 158 172
0.457225 -0.182255 0.360127 140 162 176
0.455366 -0.181585 0.358056 141 165 177
0.453510 -0.180917 0.355992 143 165 178
0.451656 -0.180250 0.353933 144 166 179
0.449804 -0.179584 0.351881 143 165 178
0.447954 -0.178920 0.349834 143 165 178
0.446106 -0.178258 0.347794 143 165 179
0.444260 -0.177597 0.345759 144 166 180
0.442417 -0.176937 0.343731 144 166 180
0.440575 -0.176278 0.341709 144 166 180
0.438736 -0.175622 0.339693 147 169 182
0.437976 -0.175118 0.337547 144 166 179
0.436140 -0.174463 0.335540 146 168 181
0.435382 -0.173960 0.333396 146 168 181
0.434623 -0.173457 0.331253 146 170 182
0.432791 -0.172805 0.329258 146 170 182
0.432034 -0.172303 0.327118 146 170 182
0.431276 -0.171800 0.324978 147 171 183
0.429449 -0.171151 0.322995 146 170 180
0.428692 -0.170650 0.320858 146 170 180
0.426868 -0.170003 0.318884 147 171 181
0.426112 -0.169502 0.316750 149 171 182
0.424291 -0.168857 0.314785 150 172 183
0.423537 -0.168357 0.312654 151 173 184
0.421719 -0.167714 0.310699 150 172 183
0.420966 -0.167215 0.308571 151 173 184
0.420213 -0.166715 0.306443 150 172 185
0.418399 -0.166075 0.304499 149 171 184
0.416588 -0.165437 0.302562 149 171 184
0.414779 -0.164800 0.300631 151 173 186
0.412972 -0.164164 0.298706 150 172 185
0.411167 -0.163530 0.296786 150 172 185
0.409364 -0.162897 0.294873 153 175 188
0.407563 -0.162266 0.292966 151 173 186
0.405765 -0.161636 0.291065 154 173 187
0.403969 -0.161008 0.289170 155 174 188
0.403225 -0.160515 0.287070 156 175 189
0.402481 -0.160022 0.284969 155 174 188
0.400689 -0.159396 0.283086 155 174 188
0.398899 -0.158772 0.281209 154 173 187
0.398158 -0.158280 0.279115 154 173 187
0.397416 -0.157788 0.277020 155 174 188
0.396675 -0.157297 0.274925 151 173 186
0.396977 -0.156934 0.272597 152 174 187
0.396234 -0.156442 0.270500 151 173 186
0.394451 -0.155822 0.268641 151 173 186
0.393709 -0.155330 0.266546 151 173 186
0.391929 -0.154713 0.264697 152 174 187
0.390151 -0.154096 0.262854 154 176 189
0.389411 -0.153606 0.260765 154 176 189
0.388672 -0.153116 0.258676 154 173 187
0.387933 -0.152626 0.256588 155 174 188
0.386160 -0.152013 0.254759 154 173 187
0.385422 -0.151523 0.252674 154 173 187
0.384683 -0.151034 0.250588 153 172 186
0.383945 -0.150544 0.248503 153 172 186
0.382178 -0.149935 0.246690 153 172 186
0.380413 -0.149327 0.244883 153 172 186
0.378650 -0.148721 0.243082 156 175 189
0.376889 -0.148116 0.241287 155 174 188
0.375130 -0.147512 0.239498 154 173 187
0.372350 -0.146794 0.238003 156 175 189
0.370596 -0.146194 0.236229 158 177 191
0.369867 -0.145710 0.234168 155 174 188
0.368116 -0.145112 0.232404 155 175 186
0.366368 -0.144516 0.230645 155 175 186
0.364623 -0.143921 0.228893 155 174 188
0.363896 -0.143439 0.226840 156 175 189
0.363170 -0.142957 0.224788 156 175 189
0.361428 -0.142365 0.223048 156 175 189
0.360703 -0.141884 0.220999 157 176 190
0.359977 -0.141403 0.218949 155 174 188
0.359252 -0.140922 0.216900 157 176 190
0.358526 -0.140441 0.214851 156 175 189
0.357801 -0.139960 0.212802 159 177 191
0.356067 -0.139373 0.211082 159 177 191
0.355343 -0.138893 0.209036 158 177 191
0.354618 -0.138413 0.206990 156 175 189
0.353894 -0.137932 0.204944 157 176 190
0.353170 -0.137452 0.202898 158 177 191
0.352445 -0.136972 0.200851 159 178 192
0.351721 -0.136492 0.198805 159 178 192
0.349996 -0.135910 0.197110 159 178 192
0.349272 -0.135430 0.195067 158 177 191
0.347550 -0.134851 0.193381 160 178 192
0.345830 -0.134273 0.191702 160 178 192
0.344112 -0.133697 0.190028 159 177 191
0.343392 -0.133219 0.187994 159 177 191
0.341677 -0.132645 0.186330 158 177 191
0.339965 -0.132072 0.184671 157 176 190
0.338254 -0.131500 0.183019 157 177 188
0.337537 -0.131025 0.180994 160 178 190
0.335830 -0.130456 0.179351 161 177 190
0.334125 -0.129888 0.177713 162 176 189
0.332422 -0.129321 0.176082 162 176 189
0.331708 -0.128848 0.174066 161 177 190
0.330009 -0.128283 0.172444 160 176 189
0.328311 -0.127720 0.170828 158 176 188
0.326616 -0.127159 0.169218 159 177 189
0.325905 -0.126688 0.167212 159 177 189
0.325195 -0.126217 0.165205 159 177 189
0.324485 -0.125746 0.163198 159 177 189
0.322794 -0.125188 0.161603 160 176 189
0.322085 -0.124717 0.159599 161 177 190
0.321376 -0.124247 0.157596 161 177 190
0.320667 -0.123777 0.155592 160 176 189
0.319957 -0.123307 0.153588 160 178 190
0.319248 -0.122836 0.151584 161 179 191
0.318539 -0.122366 0.149580 162 178 191
0.316857 -0.121814 0.148010 162 178 191
0.316149 -0.121344 0.146009 162 178 191
0.315441 -0.120875 0.144008 161 177 190
0.313764 -0.120325 0.142450 162 178 191
0.313056 -0.119856 0.140452 161 177 190
0.311382 -0.119309 0.138903 162 178 191
0.309711 -0.118763 0.137360 165 181 194
0.309006 -0.118295 0.135368 163 179 192
0.306373 -0.117675 0.134291 163 179 192
0.305671 -0.117209 0.132306 162 178 191
0.304006 -0.116668 0.130784 164 180 193
0.303304 -0.116203 0.128801 164 180 193
0.301643 -0.115664 0.127288 166 182 195
0.300943 -0.115200 0.125309 163 179 192
0.299285 -0.114663 0.123805 165 181 194
0.298585 -0.114199 0.121829 163 179 192
0.296930 -0.113664 0.120334 164 180 193
0.296232 -0.113201 0.118360 167 183 196
0.295533 -0.112738 0.116387 164 180 193
0.293883 -0.112206 0.114904 163 179 192
0.292235 -0.111676 0.113428 166 182 195
0.291538 -0.111214 0.111460 165 181 194
0.290842 -0.110753 0.109493 165 181 194
0.290145 -0.110291 0.107526 165 181 194
0.289449 -0.109829 0.105558 165 181 194
0.288753 -0.109367 0.103591 164 180 193
0.288056 -0.108906 0.101623 166 182 195
0.287360 -0.108444 0.099656 167 183 196
0.286663 -0.107982 0.097688 167 183 196
0.285967 -0.107520 0.095721 166 182 195
0.285270 -0.107059 0.093754 167 183 196
0.284574 -0.106597 0.091786 167 183 196
0.282940 -0.106076 0.090349 168 184 197
0.281308 -0.105556 0.088918 167 183 196
0.279678 -0.105038 0.087493 167 183 196
0.278050 -0.104521 0.086074 168 184 197
0.276424 -0.104006 0.084661 168 184 197
0.274801 -0.103492 0.083254 170 184 197
0.274111 -0.103034 0.081305 167 185 197
0.273421 -0.102577 0.079356 168 184 197
0.271801 -0.102066 0.077961 170 183 199
0.272041 -0.101662 0.075458 166 182 195
0.271351 -0.101204 0.073508 117 123 135
0.814249 -0.130964 -0.259285 79 66 73
0.811080 -0.129988 -0.261881 109 90 86
0.809762 -0.129114 -0.265603 124 101 95
0.808444 -0.128240 -0.269326 128 108 101
0.807126 -0.127367 -0.273048 128 108 101
0.805809 -0.126493 -0.276771 125 105 98
0.803571 -0.125572 -0.279912 119 98 93
0.802255 -0.124699 -0.283631 113 94 90
0.800938 -0.123826 -0.287351 101 83 83
0.797789 -0.122863 -0.289889 84 70 69
0.795559 -0.121947 -0.293008 54 42 44
0.791503 -0.120945 -0.294928 33 27 27
0.787453 -0.119948 -0.296829 17 17 17
0.783409 -0.118955 -0.298712 15 19 18
0.782106 -0.118090 -0.302396 14 20 20
0.780802 -0.117226 -0.306079 14 20 20
0.782225 -0.116482 -0.311598 15 21 21
0.783641 -0.115733 -0.317136 10 16 16
0.785958 -0.115019 -0.323310 8 13 16
0.790077 -0.114375 -0.330751 16 25 24
0.792375 -0.113648 -0.336980 73 83 84
0.793760 -0.112879 -0.342606 71 85 88
0.795139 -0.112106 -0.348249 75 92 99
0.793807 -0.111223 -0.352011 52 72 83
0.792475 -0.110340 -0.355773 142 164 177
0.790245 -0.109424 -0.358896 143 167 179
0.788914 -0.108541 -0.362655 140 166 181
0.645287 -0.053814 -0.539465 4 20 20
0.643204 -0.052996 -0.542169 5 17 17
0.638638 -0.052218 -0.542349 3 13 12
0.633253 -0.051461 -0.541662 2 11 8
0.626227 -0.050740 -0.539254 2 11 8
0.620866 -0.049998 -0.538500 6 12 10
0.617164 -0.049231 -0.539419 3 12 9
0.613468 -0.048468 -0.540320 2 11 8
0.609779 -0.047710 -0.541203 2 11 8
0.803324 -0.252060 0.453258 75 84 83
0.803384 -0.251535 0.450252 90 96 96
0.801184 -0.250641 0.447214 92 98 98
0.798986 -0.249749 0.444181 92 96 95
0.795662 -0.248676 0.441147 82 88 86
0.791217 -0.247425 0.438121 89 95 93
0.785654 -0.245997 0.435113 86 92 90
0.781223 -0.244755 0.432126 83 92 89
0.779044 -0.243875 0.429148 84 93 90
0.775745 -0.242819 0.426184 81 92 88
0.771330 -0.241587 0.423243 86 97 93
0.768041 -0.240537 0.420306 80 89 86
0.763638 -0.239313 0.417399 84 93 90
0.760359 -0.238270 0.414489 84 93 90
0.755968 -0.237054 0.411615 81 90 89
0.751583 -0.235842 0.408759 88 97 96
0.749433 -0.234982 0.405863 81 89 91
0.745059 -0.233778 0.403037 87 95 98
0.741803 -0.232750 0.400194 81 91 90
0.739663 -0.231896 0.397325 78 88 87
0.737525 -0.231043 0.394463 79 89 88
0.736498 -0.230363 0.391561 82 92 91
0.734363 -0.229512 0.388708 78 88 87
0.730017 -0.228326 0.385961 76 86 85
0.728994 -0.227648 0.383072 76 86 85
0.725762 -0.226636 0.380296 81 92 88
0.473951 -0.185729 0.377433 76 86 88
0.470977 -0.184888 0.375387 79 88 93
0.469103 -0.184211 0.373270 58 76 88
0.466137 -0.183375 0.371246 149 171 184
0.463176 -0.182542 0.369234 133 156 170
0.461310 -0.181870 0.367141 135 158 172
0.459447 -0.181200 0.365054 137 159 173
0.457586 -0.180531 0.362973 136 158 172
0.455727 -0.179864 0.360898 140 162 175
0.454957 -0.179354 0.358725 141 165 177
0.453101 -0.178688 0.356659 142 164 177
0.452333 -0.178179 0.354489 143 165 178
0.450480 -0.177516 0.352432 143 165 178
0.448630 -0.176854 0.350382 144 166 179
0.446782 -0.176194 0.348338 144 166 180
0.444935 -0.175535 0.346299 145 167 181
0.442011 -0.174727 0.344393 145 167 181
0.441250 -0.174222 0.342241 145 167 181
0.439410 -0.173567 0.340221 145 167 180
0.437572 -0.172914 0.338207 144 166 179
0.436812 -0.172411 0.336061 147 169 182
0.434978 -0.171760 0.334056 148 170 183
0.434219 -0.171257 0.331912 145 167 180
0.433461 -0.170754 0.329769 146 170 182
0.432702 -0.170251 0.327626 148 172 184
0.430873 -0.169603 0.325636 149 173 185
0.430116 -0.169101 0.323496 149 171 184
0.428290 -0.168456 0.321515 149 171 184
0.427533 -0.167954 0.319378 149 171 184
0.425711 -0.167311 0.317406 151 173 186
0.424955 -0.166810 0.315272 149 171 184
0.424200 -0.166309 0.313138 150 172 185
0.422382 -0.165669 0.311179 151 173 186
0.421627 -0.165169 0.309048 151 173 186
0.420873 -0.164668 0.306916 152 174 187
0.419059 -0.164031 0.304969 151 173 186
0.417247 -0.163395 0.303028 151 173 186
0.415437 -0.162760 0.301093 151 173 186
0.413630 -0.162127 0.299163 150 172 185
0.411824 -0.161495 0.297240 153 175 188
0.410021 -0.160865 0.295323 152 174 187
0.408220 -0.160236 0.293412 153 175 188
0.406421 -0.159609 0.291507 151 173 186
0.404624 -0.158982 0.289609 153 175 188
0.403880 -0.158489 0.287505 153 175 188
0.402086 -0.157865 0.285615 152 174 187
0.401342 -0.157372 0.283514 153 172 186
0.400599 -0.156879 0.281413 158 177 191
0.399855 -0.156386 0.279313 156 175 189
0.399111 -0.155893 0.277212 156 175 189
0.398368 -0.155399 0.275111 154 173 187
0.397624 -0.154906 0.273010 154 173 187
0.396880 -0.154413 0.270910 154 173 187
0.395097 -0.153796 0.269047 155 174 188
0.393315 -0.153180 0.267191 154 173 187
0.391535 -0.152565 0.265340 154 173 187
0.390795 -0.152074 0.263249 153 172 186
0.390054 -0.151583 0.261157 153 172 186
0.388279 -0.150971 0.259319 154 173 187
0.387540 -0.150481 0.257230 155 174 188
0.385767 -0.149871 0.255401 154 173 187
0.385029 -0.149382 0.253315 154 173 187
0.384291 -0.148892 0.251230 154 173 187
0.383553 -0.148403 0.249144 154 173 187
0.382814 -0.147913 0.247058 154 173 187
0.381049 -0.147308 0.245247 154 173 187
0.379285 -0.146704 0.243443 154 173 187
0.377524 -0.146101 0.241644 154 173 187
0.375764 -0.145500 0.239851 155 174 188
0.374007 -0.144900 0.238064 156 175 189
0.371230 -0.144190 0.236574 156 175 189
0.369479 -0.143594 0.234802 156 175 189
0.367729 -0.142999 0.233037 154 174 185
0.367000 -0.142516 0.230978 156 176 187
0.365254 -0.141923 0.229222 156 175 189
0.363510 -0.141332 0.227472 156 175 189
0.362783 -0.140850 0.225419 156 175 189
0.362057 -0.140368 0.223367 154 173 187
0.361330 -0.139887 0.221315 158 177 191
0.360604 -0.139405 0.219262 155 174 188
0.358866 -0.138818 0.217530 158 177 191
0.358141 -0.138337 0.215481 156 175 189
0.357415 -0.137856 0.213432 157 176 190
0.356690 -0.137375 0.211383 159 178 192
0.355965 -0.136894 0.209333 158 177 191
0.355239 -0.136413 0.207284 158 177 191
0.354514 -0.135932 0.205235 158 177 191
0.353788 -0.135452 0.203186 158 177 191
0.353063 -0.134971 0.201136 158 177 191
0.352338 -0.134490 0.199087 159 178 192
0.350612 -0.133910 0.197388 157 179 190
0.349887 -0.133430 0.195342 156 178 189
0.348165 -0.132853 0.193652 157 177 188
0.346444 -0.132278 0.191969 158 178 189
0.344725 -0.131704 0.190291 160 180 191
0.343009 -0.131131 0.188620 158 178 189
0.342289 -0.130653 0.186586 159 179 190
0.340576 -0.130083 0.184923 156 178 189
0.339857 -0.129606 0.182892 158 178 189
0.338147 -0.129038 0.181239 159 175 188
0.336439 -0.128471 0.179592 161 175 188
0.334734 -0.127905 0.177950 161 175 188
0.333030 -0.127341 0.176315 162 176 189
0.331329 -0.126778 0.174686 162 176 189
0.329630 -0.126217 0.173063 160 176 189
0.327933 -0.125657 0.171446 161 177 190
0.326238 -0.125098 0.169836 159 177 189
0.325528 -0.124627 0.167829 160 178 190
0.324817 -0.124156 0.165822 160 176 189
0.324107 -0.123685 0.163815 161 177 190
0.323396 -0.123214 0.161808 162 178 191
0.322686 -0.122743 0.159802 162 178 191
0.320999 -0.122190 0.158212 161 177 190
0.321265 -0.121801 0.155788 164 178 191
0.320555 -0.121330 0.153781 160 176 189
0.319845 -0.120859 0.151774 160 176 189
0.318162 -0.120309 0.150197 162 178 191
0.317452 -0.119839 0.148193 161 177 190
0.316743 -0.119368 0.146189 162 178 191
0.315064 -0.118820 0.144624 163 179 192
0.314356 -0.118351 0.142623 161 179 191
0.313648 -0.117881 0.140622 161 179 191
0.312939 -0.117412 0.138622 161 177 190
0.311266 -0.116867 0.137071 163 179 192
0.309595 -0.116325 0.135527 163 179 192
0.307926 -0.115783 0.133989 163 179 192
0.306259 -0.115243 0.132457 163 179 192
0.304594 -0.114705 0.130931 163 179 192
0.302931 -0.114167 0.129411 165 181 194
0.301271 -0.113632 0.127897 163 179 192
0.300570 -0.113167 0.125918 163 179 192
0.299869 -0.112703 0.123938 164 180 193
0.298213 -0.112170 0.122436 164 180 193
0.297513 -0.111706 0.120460 162 178 191
0.295860 -0.111175 0.118967 163 179 192
0.294210 -0.110646 0.117481 165 181 194
0.293512 -0.110183 0.115510 164 180 193
0.291864 -0.109656 0.114033 163 179 192
0.291168 -0.109194 0.112065 164 180 193
0.290472 -0.108733 0.110098 165 181 194
0.289775 -0.108271 0.108131 165 181 194
0.289079 -0.107809 0.106163 165 181 194
0.288382 -0.107347 0.104196 166 182 195
0.287686 -0.106886 0.102228 166 182 195
0.286989 -0.106424 0.100261 165 181 194
0.286293 -0.105962 0.098294 166 182 195
0.285597 -0.105500 0.096326 167 183 196
0.283961 -0.104981 0.094882 167 183 196
0.283265 -0.104520 0.092918 166 182 195
0.282570 -0.104059 0.090953 167 183 196
0.280938 -0.103542 0.089521 168 184 197
0.279309 -0.103027 0.088095 167 183 196
0.277682 -0.102514 0.086676 167 183 196
0.276057 -0.102001 0.085262 168 184 197
0.274434 -0.101491 0.083854 170 184 197
0.273744 -0.101033 0.081905 168 186 198
0.272124 -0.100524 0.080506 168 184 197
0.271435 -0.100068 0.078560 170 183 199
0.270746 -0.099611 0.076614 169 185 198
0.270057 -0.099154 0.074668 127 134 144
0.814473 -0.127185 -0.258701 110 99 105
0.813152 -0.126309 -0.262433 111 92 88
0.811831 -0.125433 -0.266164 121 101 94
0.810510 -0.124557 -0.269896 123 103 96
0.808268 -0.123636 -0.273053 121 102 95
0.806948 -0.122761 -0.276782 120 100 93
0.805628 -0.121886 -0.280510 116 95 90
0.802472 -0.120924 -0.283071 107 88 84
0.801155 -0.120050 -0.286794 91 73 71
0.798921 -0.119134 -0.289926 69 55 54
0.795775 -0.118179 -0.292460 45 35 36
0.791720 -0.117186 -0.294385 27 21 21
0.788583 -0.116237 -0.296892 15 15 13
0.784539 -0.115251 -0.298784 15 19 18
0.783233 -0.114385 -0.302473 12 18 16
0.781927 -0.113520 -0.306162 14 18 19
0.783346 -0.112765 -0.311685 14 20 20
0.783852 -0.111969 -0.316612 9 15 15
0.787071 -0.111278 -0.323403 7 15 17
0.789375 -0.110544 -0.329603 6 15 14
0.790766 -0.109771 -0.335205 67 77 78
0.793054 -0.109026 -0.341451 72 83 87
0.794431 -0.108244 -0.347092 80 95 102
0.794901 -0.107425 -0.352119 47 65 77
0.793567 -0.106540 -0.355887 140 162 175
0.790436 -0.105595 -0.358378 142 169 180
0.645450 -0.050164 -0.539209 4 20 20
0.643367 -0.049348 -0.541917 5 17 17
0.637974 -0.048599 -0.541265 3 13 12
0.630112 -0.047908 -0.538058 2 11 10
0.623919 -0.047193 -0.536491 2 11 8
0.617738 -0.046487 -0.534889 0 9 6
0.613218 -0.045750 -0.534951 1 10 7
0.610350 -0.044980 -0.536696 3 12 11
0.605845 -0.044253 -0.536716 3 12 11
0.801801 -0.247188 0.445143 90 96 94
0.798475 -0.246119 0.442099 86 92 90
0.794029 -0.244875 0.439061 86 95 94
0.788464 -0.243458 0.436039 87 96 95
0.782908 -0.242046 0.433042 83 93 94
0.778483 -0.240816 0.430065 80 92 92
0.775186 -0.239766 0.427099 81 93 93
0.771892 -0.238718 0.424145 83 94 96
0.767485 -0.237499 0.421216 81 92 94
0.765319 -0.236632 0.418274 75 86 88
0.763156 -0.235765 0.415337 78 90 90
0.760995 -0.234901 0.412407 79 91 91
0.758836 -0.234037 0.409482 74 86 86
0.755565 -0.233005 0.406592 80 91 93
0.752299 -0.231975 0.403714 77 88 90
0.750149 -0.231117 0.400814 78 90 90
0.746890 -0.230093 0.397957 80 90 91
0.744745 -0.229238 0.395072 82 92 93
0.743711 -0.228553 0.392150 80 90 91
0.739354 -0.227368 0.389367 74 84 83
0.736110 -0.226353 0.386553 78 87 86
0.735081 -0.225671 0.383646 77 86 83
0.731844 -0.224661 0.380849 77 86 83
0.470563 -0.182629 0.376064 85 90 93
0.467595 -0.181797 0.374029 40 54 63
0.464631 -0.180968 0.372006 156 174 186
0.462764 -0.180298 0.369906 137 159 172
0.460899 -0.179629 0.367812 136 158 172
0.459037 -0.178962 0.365724 136 158 172
0.457176 -0.178296 0.363643 136 158 171
0.455317 -0.177632 0.361567 138 162 174
0.454548 -0.177122 0.359393 140 164 176
0.452693 -0.176460 0.357327 142 164 177
0.451924 -0.175951 0.355156 140 162 175
0.450072 -0.175291 0.353099 142 164 177
0.449305 -0.174782 0.350932 142 164 177
0.447456 -0.174124 0.348883 144 166 180
0.445610 -0.173468 0.346841 144 166 180
0.443765 -0.172813 0.344805 145 167 181
0.440844 -0.172012 0.342903 143 165 179
0.440083 -0.171507 0.340751 144 166 179
0.438244 -0.170856 0.338733 146 168 181
0.437484 -0.170352 0.336583 145 167 180
0.435649 -0.169703 0.334574 147 169 182
0.433816 -0.169056 0.332572 148 170 183
0.433057 -0.168553 0.330428 148 170 183
0.432299 -0.168050 0.328285 145 169 181
0.431540 -0.167547 0.326142 147 171 183
0.429713 -0.166904 0.324154 149 171 184
0.428955 -0.166401 0.322014 149 171 184
0.427131 -0.165760 0.320035 147 169 182
0.426374 -0.165258 0.317898 149 171 184
0.424554 -0.164619 0.315929 150 172 185
0.423798 -0.164118 0.313795 150 172 185
0.423043 -0.163617 0.311660 151 173 186
0.421226 -0.162981 0.309703 151 173 186
0.420472 -0.162480 0.307572 150 172 185
0.418658 -0.161846 0.305624 150 172 185
0.416847 -0.161213 0.303681 152 174 187
0.416095 -0.160714 0.301556 152 174 187
0.414287 -0.160084 0.299623 151 173 186
0.412481 -0.159454 0.297696 152 174 187
0.410677 -0.158826 0.295775 152 174 187
0.408876 -0.158200 0.293860 151 173 186
0.407076 -0.157575 0.291951 150 174 186
0.405279 -0.156951 0.290049 151 175 187
0.404533 -0.156457 0.287942 152 174 187
0.402739 -0.155835 0.286048 152 174 187
0.401994 -0.155341 0.283944 151 173 186
0.401249 -0.154847 0.281840 154 173 187
0.400505 -0.154354 0.279737 155 174 188
0.399760 -0.153860 0.277633 154 173 187
0.399015 -0.153366 0.275529 154 173 187
0.398271 -0.152872 0.273425 154 173 187
0.396485 -0.152257 0.271556 154 173 187
0.395741 -0.151764 0.269455 154 173 187
0.393959 -0.151150 0.267595 154 173 187
0.392179 -0.150537 0.265740 154 173 187
0.391438 -0.150046 0.263646 155 174 188
0.389661 -0.149436 0.261800 156 175 189
0.388920 -0.148945 0.259709 154 173 187
0.387146 -0.148337 0.257873 153 172 186
0.386407 -0.147847 0.255784 153 172 186
0.385668 -0.147356 0.253695 154 173 187
0.383898 -0.146751 0.251871 156 175 189
0.383160 -0.146262 0.249786 154 173 187
0.382422 -0.145772 0.247700 153 172 186
0.381684 -0.145283 0.245614 154 173 187
0.379919 -0.144681 0.243805 154 173 187
0.378158 -0.144081 0.242003 155 174 188
0.376398 -0.143482 0.240206 156 175 189
0.374640 -0.142885 0.238415 155 174 188
0.371863 -0.142180 0.236920 156 175 189
0.369091 -0.141477 0.235436 156 175 189
0.368361 -0.140993 0.233375 154 174 185
0.366613 -0.140402 0.231611 153 173 184
0.364867 -0.139813 0.229854 155 174 188
0.364140 -0.139330 0.227799 155 174 188
0.363412 -0.138848 0.225743 157 176 190
0.361671 -0.138261 0.223998 157 176 190
0.360944 -0.137780 0.221946 156 175 189
0.360218 -0.137298 0.219894 156 174 188
0.359491 -0.136816 0.217841 158 176 190
0.358765 -0.136335 0.215789 158 176 190
0.358038 -0.135853 0.213737 158 177 191
0.357312 -0.135371 0.211685 158 177 191
0.356585 -0.134890 0.209632 158 177 191
0.355859 -0.134408 0.207580 157 176 190
0.355132 -0.133926 0.205528 158 177 191
0.354406 -0.133445 0.203475 158 177 191
0.353679 -0.132963 0.201423 159 177 191
0.352953 -0.132481 0.199371 158 176 190
0.351226 -0.131905 0.197668 158 178 189
0.349502 -0.131329 0.195971 158 178 189
0.347780 -0.130756 0.194281 157 177 188
0.347057 -0.130276 0.192238 158 178 189
0.345338 -0.129704 0.190556 158 178 189
0.343621 -0.129134 0.188881 157 177 188
0.342900 -0.128656 0.186844 159 179 190
0.341186 -0.128088 0.185177 158 178 189
0.339475 -0.127521 0.183517 160 178 190
0.338756 -0.127044 0.181486 160 176 189
0.337047 -0.126480 0.179835 161 177 190
0.334353 -0.125829 0.178572 162 178 191
0.333637 -0.125355 0.176550 161 177 190
0.330950 -0.124708 0.175306 161 177 190
0.330236 -0.124235 0.173290 160 176 189
0.328538 -0.123678 0.171670 161 177 190
0.326843 -0.123122 0.170055 159 177 189
0.326132 -0.122650 0.168045 159 177 189
0.325420 -0.122178 0.166035 159 177 189
0.323729 -0.121625 0.164432 160 178 190
0.323019 -0.121154 0.162426 160 178 190
0.322308 -0.120683 0.160419 163 179 192
0.321598 -0.120212 0.158412 161 177 190
0.320888 -0.119741 0.156405 161 177 190
0.320177 -0.119270 0.154398 162 178 191
0.319467 -0.118799 0.152392 163 179 192
0.318757 -0.118328 0.150385 162 178 191
0.318046 -0.117857 0.148378 163 179 192
0.317336 -0.117386 0.146371 163 179 192
0.316625 -0.116915 0.144364 161 179 191
0.314947 -0.116370 0.142798 161 179 191
0.314238 -0.115900 0.140794 161 179 191
0.313529 -0.115430 0.138790 162 178 191
0.311855 -0.114888 0.137236 162 178 191
0.311146 -0.114418 0.135235 164 180 193
0.308513 -0.113809 0.134146 164 180 193
0.306846 -0.113271 0.132610 163 179 192
0.305181 -0.112735 0.131080 164 180 193
0.303517 -0.112200 0.129556 165 181 194
0.301856 -0.111667 0.128038 164 180 193
0.300197 -0.111135 0.126527 162 178 191
0.299497 -0.110670 0.124547 163 179 192
0.298796 -0.110206 0.122568 164 180 193
0.297141 -0.109677 0.121068 164 180 193
0.295489 -0.109149 0.119574 166 182 195
0.294790 -0.108686 0.117601 164 180 193
0.293141 -0.108160 0.116116 164 180 193
0.291494 -0.107636 0.114638 165 181 194
0.290798 -0.107174 0.112671 165 181 194
0.290101 -0.106713 0.110703 163 179 192
0.289405 -0.106251 0.108736 163 179 192
0.288708 -0.105789 0.106768 164 180 193
0.287068 -0.105269 0.105308 165 181 194
0.286372 -0.104808 0.103344 165 181 194
0.286619 -0.104404 0.100866 166 182 195
0.285923 -0.103942 0.098899 167 183 196
0.285226 -0.103481 0.096931 165 181 194
0.283591 -0.102964 0.095486 168 184 197
0.282896 -0.102503 0.093522 167 183 196
0.281264 -0.101989 0.092086 168 184 197
0.280569 -0.101529 0.090125 168 184 197
0.278940 -0.101017 0.088698 167 183 196
0.277314 -0.100506 0.087277 167 183 196
0.275689 -0.099997 0.085862 167 183 196
0.274067 -0.099489 0.084454 170 184 197
0.273377 -0.099032 0.082504 167 185 197
0.271758 -0.098526 0.081105 168 184 197
0.270141 -0.098022 0.079711 170 184 197
0.270380 -0.097613 0.077212 165 181 194
0.269691 -0.097156 0.075266 132 141 150
0.817470 -0.123534 -0.259800 116 107 112
0.815221 -0.122611 -0.262979 118 100 96
0.813897 -0.121733 -0.266720 117 97 90
0.812573 -0.120855 -0.270461 116 97 90
0.811249 -0.119977 -0.274202 116 97 90
0.808085 -0.119016 -0.276789 110 91 84
0.806763 -0.118139 -0.280523 107 86 81
0.805441 -0.117263 -0.284258 95 76 70
0.803203 -0.116347 -0.287407 78 60 56
0.801882 -0.115471 -0.291138 52 38 35
0.797819 -0.114481 -0.293094 38 30 28
0.795588 -0.113570 -0.296221 20 16 15
0.791535 -0.112587 -0.298147 13 15 12
0.788400 -0.111644 -0.300655 14 18 17
0.786179 -0.110739 -0.303755 13 19 17
0.785777 -0.109905 -0.308064 15 19 18
0.786281 -0.109103 -0.312989 14 20 18
0.785874 -0.108265 -0.317312 7 16 13
0.789088 -0.107556 -0.324107 5 14 13
0.788673 -0.106713 -0.328456 3 12 11
0.790965 -0.105961 -0.334677 61 70 69
0.792347 -0.105173 -0.340297 69 79 81
0.793723 -0.104381 -0.345935 80 93 101
0.794191 -0.103556 -0.350960 64 82 92
0.792858 -0.102672 -0.354728 140 164 176
0.792422 -0.101815 -0.359134 137 165 176
0.644783 -0.046526 -0.538119 6 20 21
0.639387 -0.045788 -0.537489 7 19 19
0.634002 -0.045057 -0.536830 1 13 11
0.626149 -0.044394 -0.533618 2 12 11
0.619963 -0.043701 -0.532045 1 10 9
0.613790 -0.043016 -0.530436 0 9 8
0.609276 -0.042295 -0.530490 1 10 9
0.606414 -0.041533 -0.532225 2 11 10
0.602736 -0.040798 -0.533092 0 8 7
0.848513 -0.253741 0.459110 80 92 88
0.840618 -0.251931 0.455839 81 93 89
0.828219 -0.249417 0.452532 81 92 88
0.822610 -0.247982 0.449376 85 95 94
0.806866 -0.244962 0.446135 84 92 94
0.802411 -0.243720 0.443065 83 93 94
0.797962 -0.242482 0.440012 85 95 96
0.793519 -0.241249 0.436977 83 93 94
0.787960 -0.239846 0.433961 82 92 93
0.783531 -0.238622 0.430966 82 92 93
0.779109 -0.237402 0.427989 79 89 90
0.775812 -0.236358 0.425022 76 87 89
0.772520 -0.235316 0.422066 76 87 89
0.770350 -0.234448 0.419107 80 92 92
0.769299 -0.233751 0.416136 79 91 91
0.768247 -0.233054 0.413166 78 90 90
0.766081 -0.232188 0.410219 76 88 88
0.765031 -0.231492 0.407251 81 91 92
0.761756 -0.230462 0.404344 77 87 88
0.758485 -0.229435 0.401449 76 86 87
0.756329 -0.228576 0.398530 74 82 84
0.754175 -0.227719 0.395617 83 91 93
0.750915 -0.226699 0.392752 79 87 89
0.745446 -0.225356 0.389990 76 85 84
0.742197 -0.224343 0.387156 78 84 84
0.738953 -0.223333 0.384334 77 83 81
0.736816 -0.222487 0.381469 81 87 85
0.467959 -0.180058 0.376899 80 86 84
0.466088 -0.179389 0.374786 63 74 80
0.464219 -0.178721 0.372679 96 113 123
0.461261 -0.177901 0.370666 142 161 175
0.459398 -0.177236 0.368574 134 156 170
0.458626 -0.176724 0.366395 135 157 170
0.456766 -0.176062 0.364312 140 162 175
0.454908 -0.175401 0.362236 137 161 173
0.454139 -0.174891 0.360062 137 160 174
0.453370 -0.174380 0.357888 141 163 176
0.451516 -0.173722 0.355824 141 163 176
0.450748 -0.173213 0.353654 142 164 177
0.449979 -0.172703 0.351483 143 165 178
0.448130 -0.172048 0.349431 142 164 178
0.446283 -0.171394 0.347385 144 166 180
0.444438 -0.170741 0.345344 144 166 180
0.441517 -0.169946 0.343438 144 166 180
0.439677 -0.169297 0.341413 143 165 178
0.438916 -0.168792 0.339260 144 166 179
0.437079 -0.168145 0.337244 145 167 180
0.436318 -0.167641 0.335095 147 169 182
0.434485 -0.166996 0.333088 144 166 179
0.433725 -0.166492 0.330942 146 168 181
0.431895 -0.165850 0.328944 148 170 183
0.431137 -0.165347 0.326801 148 170 183
0.430378 -0.164844 0.324658 148 170 183
0.429619 -0.164341 0.322515 147 169 182
0.427795 -0.163702 0.320532 148 170 183
0.425972 -0.163064 0.318556 149 171 184
0.425216 -0.162562 0.316418 150 172 185
0.424459 -0.162061 0.314281 149 171 184
0.422641 -0.161426 0.312317 151 173 186
0.421886 -0.160925 0.310183 151 173 186
0.420071 -0.160292 0.308227 150 172 185
0.419316 -0.159792 0.306096 152 174 187
0.417504 -0.159162 0.304150 152 174 187
0.415695 -0.158533 0.302210 153 175 188
0.413887 -0.157905 0.300276 152 174 187
0.412082 -0.157279 0.298348 152 174 187
0.411332 -0.156781 0.296229 153 175 188
0.409530 -0.156157 0.294310 152 174 187
0.407730 -0.155535 0.292397 149 173 185
0.405932 -0.154913 0.290491 150 174 186
0.405185 -0.154418 0.288381 151 173 186
0.403391 -0.153799 0.286483 152 174 187
0.402645 -0.153305 0.284376 152 174 187
0.401899 -0.152810 0.282269 154 173 187
0.401153 -0.152316 0.280162 155 174 188
0.400407 -0.151821 0.278056 155 174 188
0.399662 -0.151327 0.275949 155 174 188
0.398916 -0.150832 0.273842 155 174 188
0.397130 -0.150219 0.271968 154 173 187
0.395346 -0.149607 0.270101 154 173 187
0.394602 -0.149114 0.268000 154 173 187
0.392822 -0.148504 0.266142 155 174 188
0.391043 -0.147895 0.264290 157 176 190
0.390302 -0.147404 0.262195 155 174 188
0.388526 -0.146797 0.260352 156 175 189
0.387786 -0.146306 0.258260 155 174 188
0.386014 -0.145702 0.256426 154 173 187
0.385275 -0.145212 0.254338 154 173 187
0.384535 -0.144722 0.252249 155 174 188
0.383796 -0.144232 0.250160 155 174 188
0.383057 -0.143741 0.248072 153 172 186
0.381291 -0.143141 0.246256 155 174 188
0.380553 -0.142652 0.244170 154 173 187
0.379814 -0.142162 0.242085 156 175 189
0.377030 -0.141458 0.240563 154 173 187
0.375272 -0.140863 0.238768 155 174 188
0.373516 -0.140269 0.236980 154 173 187
0.370742 -0.139572 0.235488 157 176 190
0.368992 -0.138982 0.233715 156 176 187
0.367243 -0.138393 0.231947 158 178 189
0.366514 -0.137909 0.229886 156 175 189
0.364768 -0.137323 0.228128 156 175 189
0.363025 -0.136738 0.226376 156 175 189
0.362298 -0.136256 0.224320 154 173 187
0.360558 -0.135673 0.222577 157 175 189
0.359831 -0.135191 0.220525 155 173 187
0.359105 -0.134709 0.218473 156 174 188
0.358378 -0.134228 0.216420 158 176 190
0.357652 -0.133746 0.214368 156 176 187
0.356926 -0.133264 0.212316 157 177 188
0.356199 -0.132783 0.210264 155 175 186
0.355473 -0.132301 0.208211 156 176 187
0.354746 -0.131819 0.206159 158 178 189
0.354020 -0.131338 0.204107 157 175 187
0.353293 -0.130856 0.202054 159 177 189
0.352567 -0.130374 0.200002 158 176 188
0.351840 -0.129893 0.197950 159 177 189
0.350115 -0.129320 0.196249 158 176 188
0.348393 -0.128748 0.194555 158 176 188
0.346672 -0.128178 0.192866 158 176 188
0.344954 -0.127610 0.191184 158 176 188
0.344232 -0.127131 0.189144 159 177 189
0.342516 -0.126564 0.187470 159 175 188
0.341795 -0.126086 0.185433 160 176 189
0.340083 -0.125522 0.183769 159 177 189
0.338373 -0.124959 0.182111 158 176 188
0.336666 -0.124397 0.180458 158 176 188
0.334960 -0.123837 0.178812 159 177 189
0.333257 -0.123279 0.177172 160 178 190
0.331556 -0.122721 0.175538 160 178 190
0.329857 -0.122166 0.173911 160 178 190
0.329143 -0.121692 0.171895 159 177 189
0.327447 -0.121139 0.170276 160 178 190
0.326735 -0.120666 0.168263 159 179 190
0.326022 -0.120194 0.166250 158 178 189
0.324330 -0.119643 0.164643 158 178 189
0.323619 -0.119171 0.162634 159 179 190
0.322908 -0.118700 0.160624 160 178 190
0.321220 -0.118152 0.159029 162 180 192
0.320510 -0.117681 0.157022 161 179 191
0.319800 -0.117210 0.155016 161 177 190
0.319089 -0.116739 0.153009 161 177 190
0.318379 -0.116268 0.151002 162 178 191
0.317668 -0.115797 0.148995 162 178 191
0.316958 -0.115326 0.146988 163 179 192
0.316248 -0.114855 0.144982 162 180 192
0.315537 -0.114384 0.142975 161 179 191
0.314827 -0.113913 0.140968 161 179 191
0.314117 -0.113442 0.138961 163 179 192
0.313406 -0.112971 0.136954 162 178 191
0.311733 -0.112432 0.135399 162 178 191
0.310062 -0.111895 0.133850 162 178 191
0.307432 -0.111292 0.132765 162 178 191
0.305766 -0.110759 0.131231 163 179 192
0.303144 -0.110161 0.130167 163 179 192
0.302441 -0.109695 0.128181 163 179 192
0.300781 -0.109166 0.126666 162 178 191
0.299124 -0.108638 0.125156 164 180 193
0.298423 -0.108173 0.123176 162 178 191
0.297723 -0.107709 0.121197 165 181 194
0.296070 -0.107183 0.119699 166 182 195
0.295370 -0.106720 0.117723 164 180 193
0.293720 -0.106196 0.116234 163 179 192
0.293022 -0.105733 0.114261 163 179 192
0.291375 -0.105212 0.112782 165 181 194
0.289731 -0.104693 0.111308 165 181 194
0.289034 -0.104231 0.109341 162 178 191
0.288338 -0.103769 0.107374 164 180 193
0.287642 -0.103308 0.105406 163 179 192
0.286003 -0.102792 0.103948 165 181 194
0.285307 -0.102331 0.101984 167 183 196
0.285552 -0.101922 0.099504 167 183 196
0.284856 -0.101461 0.097537 166 182 195
0.283221 -0.100947 0.096091 167 183 196
0.282526 -0.100486 0.094126 167 183 196
0.281831 -0.100025 0.092162 167 183 196
0.280200 -0.099515 0.090728 168 184 197
0.279506 -0.099055 0.088767 167 183 196
0.277879 -0.098547 0.087342 168 184 197
0.276254 -0.098040 0.085923 169 185 198
0.274631 -0.097535 0.084510 172 186 199
0.273010 -0.097031 0.083104 168 184 197
0.272320 -0.096573 0.081155 168 184 197
0.270702 -0.096072 0.079757 170 184 197
0.270014 -0.095615 0.077811 167 183 196
0.269325 -0.095158 0.075865 123 132 141
0.821387 -0.119901 -0.261453 123 114 119
0.820057 -0.119019 -0.265212 118 100 96
0.818726 -0.118137 -0.268971 117 98 91
0.815553 -0.117175 -0.271590 113 94 87
0.814225 -0.116294 -0.275343 108 89 82
0.811977 -0.115374 -0.278520 102 83 76
0.810650 -0.114494 -0.282270 96 77 71
0.807489 -0.113540 -0.284855 84 65 59
0.805248 -0.112625 -0.288014 66 51 46
0.803924 -0.111747 -0.291755 45 34 30
0.802600 -0.110869 -0.295496 30 26 23
0.799450 -0.109922 -0.298048 13 12 10
0.797217 -0.109012 -0.301186 13 15 12
0.793165 -0.108038 -0.303117 13 19 17
0.791847 -0.107164 -0.306839 14 20 18
0.790529 -0.106290 -0.310562 15 19 18
0.791026 -0.105478 -0.315503 11 17 15
0.790612 -0.104633 -0.319844 6 15 12
0.790196 -0.103787 -0.324191 8 17 16
0.790682 -0.102967 -0.329163 3 12 11
0.790261 -0.102117 -0.333525 70 79 78
0.791641 -0.101320 -0.339142 67 77 79
0.793015 -0.100519 -0.344778 83 94 100
0.793482 -0.099688 -0.349801 71 88 98
0.792148 -0.098803 -0.353569 140 164 176
0.791712 -0.097943 -0.357974 138 166 177
0.792170 -0.097105 -0.363024 138 168 179
0.637067 -0.042209 -0.534737 6 18 18
0.631687 -0.041495 -0.534076 2 14 14
0.623841 -0.040858 -0.530866 3 13 12
0.616011 -0.040233 -0.527607 4 13 12
0.609846 -0.039570 -0.525991 1 10 9
0.606161 -0.038839 -0.526885 0 9 8
0.602482 -0.038112 -0.527761 1 10 9
0.600451 -0.037335 -0.530329 2 11 10
0.860354 -0.253022 0.463502 78 90 88
0.855838 -0.251748 0.460253 78 93 90
0.850198 -0.250303 0.457000 78 93 90
0.837795 -0.247814 0.453656 79 91 89
0.825413 -0.245339 0.450372 84 96 96
0.818686 -0.243746 0.447215 80 92 92
0.811969 -0.242160 0.444088 81 93 93
0.804139 -0.240409 0.440984 80 92 92
0.798568 -0.239009 0.437925 79 89 90
0.795250 -0.237956 0.434892 82 92 91
0.790816 -0.236736 0.431873 77 86 85
0.785267 -0.235351 0.428877 75 84 83
0.781966 -0.234309 0.425889 76 88 88
0.777551 -0.233102 0.422925 81 93 93
0.775376 -0.232234 0.419950 78 90 90
0.774319 -0.231533 0.416964 77 87 88
0.773262 -0.230832 0.413978 72 82 83
0.772205 -0.230131 0.410992 71 81 80
0.771148 -0.229430 0.408006 76 86 85
0.767868 -0.228403 0.405079 74 84 83
0.766813 -0.227703 0.402099 77 85 87
0.764649 -0.226842 0.399154 80 85 88
0.761378 -0.225820 0.396254 76 81 84
0.758112 -0.224802 0.393367 81 86 89
0.751532 -0.223306 0.390625 79 84 87
0.747172 -0.222136 0.387818 76 82 82
0.742819 -0.220970 0.385029 79 85 85
0.739576 -0.219966 0.382205 79 85 83
0.471609 -0.178779 0.379544 76 82 80
0.468640 -0.177957 0.377496 78 83 79
0.465675 -0.177139 0.375460 77 87 89
0.463807 -0.176473 0.373352 45 58 67
0.460850 -0.175660 0.371337 138 156 168
0.460078 -0.175147 0.369155 138 157 172
0.458216 -0.174487 0.367065 140 159 173
0.457445 -0.173975 0.364886 141 161 172
0.455586 -0.173316 0.362805 136 158 171
0.454816 -0.172806 0.360628 138 161 175
0.452960 -0.172149 0.358557 141 163 176
0.452191 -0.171639 0.356384 142 164 177
0.451422 -0.171129 0.354210 141 163 176
0.449571 -0.170475 0.352151 140 162 175
0.447722 -0.169823 0.350097 143 165 179
0.445875 -0.169172 0.348050 144 166 180
0.444031 -0.168522 0.346009 143 165 179
0.442189 -0.167874 0.343974 143 165 179
0.440348 -0.167228 0.341945 143 165 178
0.438510 -0.166582 0.339922 145 167 180
0.437749 -0.166077 0.337770 146 168 181
0.435914 -0.165434 0.335756 149 171 184
0.435153 -0.164930 0.333607 146 168 181
0.433321 -0.164289 0.331602 148 170 183
0.432562 -0.163785 0.329456 150 172 185
0.430733 -0.163146 0.327460 149 171 184
0.429975 -0.162643 0.325317 148 170 183
0.429216 -0.162140 0.323174 149 171 184
0.428457 -0.161637 0.321031 149 171 184
0.426634 -0.161002 0.319050 149 171 184
0.425877 -0.160500 0.316910 150 172 185
0.424057 -0.159867 0.314939 151 173 186
0.423300 -0.159365 0.312801 150 172 185
0.421484 -0.158734 0.310839 151 173 186
0.419669 -0.158105 0.308883 151 173 186
0.418915 -0.157604 0.306752 152 174 187
0.417104 -0.156977 0.304805 152 174 187
0.415295 -0.156351 0.302864 151 173 186
0.413488 -0.155726 0.300929 150 172 185
0.412737 -0.155228 0.298807 152 174 187
0.410933 -0.154606 0.296881 153 175 188
0.409132 -0.153985 0.294961 152 174 187
0.407332 -0.153365 0.293047 154 176 189
0.406584 -0.152869 0.290934 153 175 188
0.404788 -0.152252 0.289030 151 173 186
0.404041 -0.151757 0.286920 153 175 188
0.402248 -0.151141 0.285024 152 174 187
0.401502 -0.150647 0.282917 155 174 188
0.400757 -0.150153 0.280810 155 174 188
0.400011 -0.149658 0.278704 154 173 187
0.399265 -0.149164 0.276597 154 173 187
0.398519 -0.148669 0.274490 155 174 188
0.396734 -0.148059 0.272616 156 175 189
0.394951 -0.147450 0.270747 155 174 188
0.394207 -0.146957 0.268646 155 174 188
0.392427 -0.146350 0.266787 154 173 187
0.391684 -0.145858 0.264690 155 174 188
0.389907 -0.145253 0.262839 154 173 187
0.389166 -0.144761 0.260745 154 173 187
0.387392 -0.144159 0.258904 154 173 187
0.386652 -0.143668 0.256812 155 174 188
0.385912 -0.143177 0.254720 154 173 187
0.385171 -0.142686 0.252629 155 174 188
0.383403 -0.142087 0.250803 156 175 189
0.382663 -0.141597 0.248714 155 174 188
0.381924 -0.141107 0.246625 156 175 189
0.380160 -0.140511 0.244812 157 176 190
0.379422 -0.140021 0.242726 157 176 190
0.377661 -0.139427 0.240921 156 175 189
0.375903 -0.138835 0.239123 154 173 187
0.374146 -0.138244 0.237330 157 176 190
0.372392 -0.137654 0.235544 155 174 188
0.370640 -0.137066 0.233763 156 176 187
0.368890 -0.136479 0.231989 156 176 187
0.367142 -0.135893 0.230221 155 174 188
0.365396 -0.135309 0.228459 155 174 188
0.363652 -0.134727 0.226703 157 176 190
0.362924 -0.134244 0.224644 157 175 189
0.361183 -0.133663 0.222897 156 174 188
0.360456 -0.133181 0.220842 156 174 188
0.358719 -0.132602 0.219104 157 175 189
0.357992 -0.132121 0.217052 158 176 190
0.357266 -0.131639 0.214999 157 177 188
0.356539 -0.131157 0.212947 158 178 189
0.355813 -0.130676 0.210895 158 178 189
0.355086 -0.130194 0.208843 159 177 189
0.355363 -0.129804 0.206455 159 177 189
0.353633 -0.129231 0.204738 158 176 188
0.352907 -0.128749 0.202686 160 178 190
0.352180 -0.128267 0.200633 159 177 189
0.351454 -0.127786 0.198581 160 176 189
0.349730 -0.127216 0.196880 159 177 189
0.349004 -0.126735 0.194830 159 177 189
0.347283 -0.126167 0.193138 159 177 189
0.345564 -0.125601 0.191451 159 175 188
0.344841 -0.125122 0.189408 160 176 189
0.343125 -0.124557 0.187731 159 175 188
0.342403 -0.124079 0.185691 162 176 189
0.340691 -0.123517 0.184022 158 176 188
0.339970 -0.123039 0.181985 159 177 189
0.337272 -0.122397 0.180704 160 178 190
0.335566 -0.121839 0.179054 160 178 190
0.332876 -0.121203 0.177794 160 178 190
0.331176 -0.120649 0.176159 158 178 189
0.329477 -0.120096 0.174531 159 179 190
0.328764 -0.119623 0.172515 159 179 190
0.328050 -0.119150 0.170499 158 178 189
0.326356 -0.118600 0.168882 159 179 190
0.325643 -0.118127 0.166869 160 180 191
0.323952 -0.117580 0.165262 159 179 190
0.323241 -0.117108 0.163252 158 178 189
0.321553 -0.116562 0.161653 160 180 191
0.320843 -0.116091 0.159646 159 179 190
0.320132 -0.115620 0.157640 159 179 190
0.319422 -0.115149 0.155633 163 179 192
0.318711 -0.114678 0.153626 163 179 192
0.318001 -0.114207 0.151619 163 179 192
0.317291 -0.113736 0.149612 162 178 191
0.317549 -0.113334 0.147173 163 179 192
0.316838 -0.112863 0.145163 162 178 191
0.316126 -0.112391 0.143153 161 179 191
0.315415 -0.111919 0.141144 162 180 192
0.313739 -0.111381 0.139578 164 180 193
0.313028 -0.110910 0.137572 162 178 191
0.312318 -0.110439 0.135565 164 180 193
0.310646 -0.109905 0.134012 161 177 190
0.308977 -0.109371 0.132465 162 178 191
0.306350 -0.108776 0.131384 165 181 194
0.304686 -0.108246 0.129852 164 180 193
0.303024 -0.107718 0.128326 163 179 192
0.301364 -0.107191 0.126806 163 179 192
0.299706 -0.106665 0.125293 164 180 193
0.299005 -0.106200 0.123310 163 179 192
0.298303 -0.105735 0.121328 164 180 193
0.296649 -0.105212 0.119826 164 180 193
0.295949 -0.104747 0.117847 163 179 192
0.295248 -0.104283 0.115867 163 179 192
0.293599 -0.103763 0.114378 163 179 192
0.291952 -0.103244 0.112894 164 180 193
0.290307 -0.102727 0.111417 164 180 193
0.289609 -0.102264 0.109447 165 181 194
0.287968 -0.101749 0.107979 165 181 194
0.287271 -0.101288 0.106011 165 181 194
0.286575 -0.100826 0.104044 166 182 195
0.285878 -0.100364 0.102076 166 182 195
0.285182 -0.099902 0.100109 166 182 195
0.284486 -0.099441 0.098142 166 182 195
0.283789 -0.098979 0.096174 166 182 195
0.282156 -0.098470 0.094730 167 183 196
0.281461 -0.098009 0.092766 167 183 196
0.280765 -0.097548 0.090802 169 185 198
0.279137 -0.097041 0.089370 168 184 197
0.278442 -0.096581 0.087408 167 183 196
0.276817 -0.096076 0.085986 169 185 198
