ply
format ascii 1.0
element vertex 1231
property float x
property float y
property float z
property uchar red
property uchar green
property uchar blue
end_header
-0.006001 0.026509 0.352367 153 188 210
-0.006368 0.026752 0.351330 153 189 213
-0.007665 0.026719 0.350538 152 188 212
-0.083646 0.010990 0.348408 123 163 188
-0.083933 0.011180 0.347598 126 167 189
-0.084219 0.011370 0.346789 132 173 195
-0.084506 0.011560 0.345979 134 176 198
-0.085691 0.011452 0.345503 134 179 200
-0.085976 0.011642 0.344696 138 185 205
-0.086262 0.011831 0.343890 140 186 209
-0.086547 0.012020 0.343084 143 189 213
-0.086833 0.012209 0.342277 147 193 217
-0.087118 0.012399 0.341471 150 196 220
-0.087404 0.012588 0.340664 153 199 225
-0.087689 0.012777 0.339858 158 201 233
-0.087974 0.012966 0.339052 162 205 240
-0.088260 0.013156 0.338245 163 207 246
-0.088545 0.013345 0.337439 167 211 250
-0.088831 0.013534 0.336633 170 214 253
-0.089116 0.013723 0.335826 173 217 255
-0.089402 0.013913 0.335020 173 217 254
-0.090855 0.013983 0.333785 172 216 251
-0.091140 0.014172 0.332982 170 213 248
-0.100390 0.025665 0.289619 106 96 71
-0.101507 0.025512 0.289334 49 40 25
-0.101797 0.025704 0.288515 15 15 7
-0.102087 0.025896 0.287697 11 12 4
-0.102377 0.026089 0.286878 12 11 7
-0.102666 0.026281 0.286060 11 14 7
-0.102956 0.026473 0.285241 11 16 10
-0.103246 0.026665 0.284423 9 14 10
-0.104355 0.026507 0.284161 9 14 10
-0.104644 0.026698 0.283346 7 13 9
-0.104932 0.026890 0.282530 8 14 12
-0.105221 0.027081 0.281715 9 15 13
-0.105510 0.027273 0.280899 7 13 11
-0.105798 0.027464 0.280084 8 12 11
-0.106900 0.027301 0.279843 10 12 11
-0.107187 0.027492 0.279031 9 14 10
-0.107475 0.027682 0.278218 10 14 13
-0.107763 0.027873 0.277406 10 14 13
-0.108050 0.028064 0.276594 10 14 13
-0.108338 0.028254 0.275781 11 15 14
-0.108625 0.028445 0.274969 13 15 12
-0.108913 0.028636 0.274156 13 15 12
-0.109201 0.028826 0.273344 15 17 14
-0.110292 0.028656 0.273134 13 15 12
-0.110578 0.028846 0.272324 18 18 10
-0.110865 0.029036 0.271515 110 106 81
-0.111151 0.029226 0.270706 157 150 122
0.062758 0.108666 0.135937 166 160 138
0.062237 0.109011 0.134467 163 160 141
0.062514 0.109721 0.132376 159 155 144
0.061992 0.110067 0.130902 162 156 144
0.063060 0.111146 0.128176 161 155 143
0.063330 0.111860 0.126067 160 154 140
0.062805 0.112208 0.124585 159 156 141
0.061489 0.112187 0.123738 159 156 141
0.060965 0.112534 0.122259 158 155 140
0.059652 0.112512 0.121421 152 148 136
0.059130 0.112858 0.119945 161 157 145
0.058607 0.113205 0.118468 158 154 142
0.058085 0.113551 0.116992 153 151 139
0.058347 0.114270 0.114862 159 157 145
0.059392 0.115365 0.112069 154 152 140
0.060432 0.116462 0.109263 154 152 140
0.061468 0.117561 0.106446 156 153 144
0.062499 0.118664 0.103616 152 149 140
0.061967 0.119017 0.102113 150 150 140
0.059877 0.118616 0.101953 155 155 147
0.057014 0.117834 0.102481 155 155 145
0.054934 0.117426 0.102349 152 152 142
0.053634 0.117395 0.101548 151 153 142
0.051562 0.116983 0.101437 151 153 142
0.050267 0.116948 0.100651 155 157 146
0.049747 0.117293 0.099181 156 156 146
0.049226 0.117638 0.097710 157 157 147
0.048706 0.117983 0.096240 156 153 144
0.048185 0.118328 0.094770 157 154 145
0.048433 0.119057 0.092597 155 152 143
0.047144 0.119018 0.091829 152 152 142
0.047390 0.119749 0.089651 152 152 142
0.046868 0.120095 0.088177 155 152 143
0.046347 0.120440 0.086704 157 155 143
0.045825 0.120786 0.085231 157 153 142
0.045304 0.121132 0.083757 158 154 142
0.045543 0.121867 0.081561 154 152 140
0.045020 0.122213 0.080084 155 153 141
0.045256 0.122950 0.077878 157 155 143
0.045489 0.123689 0.075666 156 152 140
0.045721 0.124429 0.073448 157 153 141
0.045195 0.124777 0.071963 158 156 143
0.044669 0.125126 0.070477 161 159 146
0.043390 0.125080 0.069737 165 163 151
0.165021 0.029645 0.466236 125 126 120
0.164515 0.029980 0.464808 126 127 121
0.165048 0.030523 0.463443 129 130 124
0.165578 0.031067 0.462071 127 128 122
0.166106 0.031613 0.460694 127 128 122
0.164563 0.031740 0.459204 127 130 123
0.163022 0.031866 0.457719 126 131 124
0.161483 0.031990 0.456241 128 131 124
0.162009 0.032538 0.454858 130 133 126
0.162533 0.033086 0.453468 134 137 130
0.163054 0.033637 0.452072 131 132 126
0.164602 0.034403 0.450706 135 136 130
0.165118 0.034956 0.449295 135 136 130
0.165632 0.035512 0.447878 133 134 128
0.166144 0.036068 0.446455 134 135 129
0.165630 0.036409 0.445003 134 135 129
0.165116 0.036750 0.443551 135 136 130
0.163580 0.036872 0.442082 135 136 130
0.161026 0.036773 0.440605 135 136 130
0.160516 0.037112 0.439162 136 137 131
0.158986 0.037230 0.437711 136 137 131
0.158477 0.037568 0.436271 138 139 133
0.157967 0.037906 0.434831 137 138 132
0.157457 0.038244 0.433391 139 140 134
0.156947 0.038582 0.431951 137 138 132
0.156438 0.038920 0.430512 137 140 133
0.155928 0.039257 0.429072 135 138 131
0.156429 0.039821 0.427618 135 138 131
0.155918 0.040160 0.426175 136 139 132
0.156416 0.040726 0.424713 138 139 133
0.155905 0.041065 0.423267 138 139 133
0.156399 0.041633 0.421796 137 138 132
0.156892 0.042202 0.420318 137 138 132
0.156378 0.042543 0.418866 140 141 135
0.155864 0.042884 0.417414 140 141 135
0.154348 0.042993 0.415999 139 140 134
0.153835 0.043333 0.414550 139 140 134
0.153322 0.043674 0.413101 138 141 134
0.152809 0.044014 0.411652 137 139 134
0.152296 0.044354 0.410203 138 140 137
0.151783 0.044694 0.408754 139 141 140
0.151270 0.045034 0.407305 139 143 144
0.150757 0.045374 0.405856 140 146 146
0.150244 0.045714 0.404407 144 150 150
0.149731 0.046054 0.402958 144 153 150
0.149218 0.046394 0.401509 144 152 154
0.149696 0.046974 0.399989 140 149 148
0.149182 0.047314 0.398537 140 146 146
0.149657 0.047896 0.397008 138 142 141
0.149141 0.048237 0.395553 134 139 135
0.149613 0.048821 0.394015 139 141 136
0.149097 0.049163 0.392557 138 139 134
0.149564 0.049749 0.391009 140 141 135
0.149047 0.050092 0.389548 138 141 134
0.148530 0.050435 0.388087 143 144 138
0.148013 0.050778 0.386626 140 141 135
0.147496 0.051121 0.385165 140 141 135
0.146978 0.051464 0.383704 140 139 134
0.145483 0.051559 0.382350 139 138 133
0.144967 0.051901 0.380892 140 139 134
0.144451 0.052243 0.379434 141 140 135
0.143935 0.052585 0.377975 142 139 132
0.142445 0.052677 0.376637 146 143 136
0.142903 0.053270 0.375059 143 140 133
0.141415 0.053360 0.373727 143 140 133
0.140900 0.053702 0.372272 141 141 133
0.140385 0.054043 0.370816 143 143 135
0.138902 0.054130 0.369496 143 144 136
0.137421 0.054216 0.368181 139 140 132
0.135942 0.054301 0.366873 141 140 135
0.006890 0.026066 0.366699 145 141 132
0.006514 0.026315 0.365638 144 141 134
0.005193 0.026294 0.364776 145 142 135
0.003874 0.026273 0.363919 146 142 139
-0.000642 0.025683 0.362638 147 175 196
-0.001011 0.025928 0.361596 147 184 203
-0.001380 0.026172 0.360553 148 186 207
-0.001749 0.026417 0.359510 149 187 210
-0.003056 0.026388 0.358687 150 188 211
-0.003424 0.026632 0.357647 151 189 210
-0.003793 0.026876 0.356607 150 188 209
-0.005095 0.026844 0.355796 150 188 209
-0.005462 0.027087 0.354759 151 189 210
-0.005829 0.027330 0.353722 150 188 207
-0.006196 0.027573 0.352686 151 187 209
-0.006563 0.027817 0.351649 150 188 211
-0.007860 0.027780 0.350856 150 188 209
-0.083512 0.011631 0.349466 118 154 178
-0.083798 0.011821 0.348657 120 160 185
-0.084085 0.012011 0.347847 126 168 192
-0.086128 0.012469 0.344944 137 184 204
-0.086414 0.012659 0.344138 139 185 208
-0.086699 0.012848 0.343332 142 188 212
-0.086984 0.013037 0.342525 145 191 215
-0.087270 0.013226 0.341719 147 193 217
-0.087555 0.013416 0.340912 152 198 224
-0.087841 0.013605 0.340106 156 201 232
-0.088126 0.013794 0.339300 161 205 240
-0.088412 0.013983 0.338493 164 208 247
-0.088697 0.014173 0.337687 169 213 252
-0.088983 0.014362 0.336881 170 214 253
-0.089268 0.014551 0.336074 172 216 255
-0.089553 0.014740 0.335268 173 217 255
-0.091006 0.014808 0.334032 172 214 252
-0.091291 0.014996 0.333229 169 211 249
-0.098303 0.026814 0.290464 164 159 153
-0.099425 0.026662 0.290165 154 148 134
-0.100835 0.026701 0.289051 35 28 12
-0.101951 0.026545 0.288767 16 17 11
-0.102241 0.026737 0.287948 12 13 7
-0.102531 0.026929 0.287130 14 13 9
-0.102820 0.027121 0.286311 10 13 6
-0.103110 0.027313 0.285493 8 13 7
-0.103400 0.027505 0.284674 9 14 10
-0.103690 0.027697 0.283856 9 14 10
-0.103979 0.027889 0.283037 9 14 10
-0.105086 0.027727 0.282781 9 15 11
-0.105374 0.027918 0.281965 9 15 11
-0.105663 0.028110 0.281150 9 13 12
-0.105952 0.028301 0.280335 10 14 13
-0.106240 0.028492 0.279519 10 14 13
-0.107340 0.028326 0.279281 9 14 10
-0.107628 0.028516 0.278468 9 14 10
-0.107916 0.028707 0.277656 9 13 12
-0.108203 0.028898 0.276844 10 14 13
-0.108491 0.029088 0.276031 8 12 11
-0.108778 0.029279 0.275219 11 13 12
-0.109066 0.029470 0.274406 12 14 13
-0.109353 0.029660 0.273594 15 17 14
-0.109641 0.029851 0.272781 17 19 16
-0.110730 0.029677 0.272573 24 21 12
-0.111017 0.029867 0.271764 113 107 81
-0.111303 0.030057 0.270955 159 152 126
0.056093 0.107243 0.141297 166 159 140
0.055581 0.107582 0.139851 164 161 142
0.055866 0.108289 0.137786 162 158 146
0.056148 0.108998 0.135714 160 156 144
0.056428 0.109709 0.133636 161 157 145
0.056706 0.110420 0.131553 158 155 140
0.056190 0.110762 0.130095 160 157 142
0.054883 0.110733 0.129271 160 157 142
0.054368 0.111075 0.127816 158 155 140
0.053853 0.111416 0.126361 159 156 141
0.053338 0.111758 0.124906 157 154 139
0.052823 0.112099 0.123451 158 155 140
0.052307 0.112441 0.121996 160 156 144
0.051792 0.112782 0.120541 158 154 142
0.052061 0.113500 0.118430 161 157 146
0.052327 0.114220 0.116312 155 151 140
0.057279 0.117209 0.110217 155 153 141
0.053633 0.116042 0.111395 158 155 146
0.053113 0.116387 0.109925 156 153 144
0.051814 0.116352 0.109125 155 152 143
0.050518 0.116315 0.108332 154 154 144
0.048448 0.115896 0.108223 156 156 146
0.046382 0.115473 0.108125 157 157 147
0.045868 0.115814 0.106673 155 155 145
0.044581 0.115771 0.105907 154 154 144
0.044068 0.116111 0.104458 154 154 144
0.043555 0.116451 0.103009 160 160 150
0.043042 0.116791 0.101560 163 160 151
0.043298 0.117518 0.099413 163 161 149
0.043551 0.118246 0.097259 163 161 149
0.043802 0.118976 0.095100 160 158 146
0.043286 0.119318 0.093641 158 156 144
0.042770 0.119660 0.092183 159 157 145
0.042254 0.120002 0.090725 159 155 143
0.041738 0.120345 0.089267 161 157 145
0.041222 0.120687 0.087809 164 158 144
0.039946 0.120637 0.087073 163 161 148
0.039431 0.120978 0.085618 161 159 146
0.038916 0.121320 0.084163 163 159 147
0.038400 0.121661 0.082708 161 158 143
0.037885 0.122003 0.081253 165 162 147
0.037370 0.122344 0.079798 165 163 150
0.036855 0.122686 0.078343 166 164 151
0.035588 0.122630 0.077632 171 169 157
0.163177 0.030357 0.467958 126 129 122
0.162673 0.030691 0.466536 126 129 122
0.163208 0.031235 0.465181 126 129 122
0.162704 0.031570 0.463756 128 129 123
0.163236 0.032116 0.462392 127 128 122
0.162730 0.032451 0.460964 127 128 122
0.162225 0.032786 0.459536 128 131 124
0.160687 0.032907 0.458057 130 133 126
0.159150 0.033027 0.456584 130 133 126
0.157616 0.033145 0.455117 133 136 129
0.157114 0.033478 0.453698 132 135 128
0.156612 0.033811 0.452280 132 133 127
0.157137 0.034362 0.450897 132 133 127
0.157660 0.034913 0.449508 133 134 128
0.158182 0.035467 0.448114 133 134 128
0.157676 0.035802 0.446686 134 135 129
0.157171 0.036137 0.445258 136 137 131
0.156665 0.036472 0.443830 131 132 126
0.155139 0.036585 0.442384 136 137 131
0.154634 0.036920 0.440960 138 139 133
0.154130 0.037254 0.439535 135 136 130
0.153626 0.037589 0.438110 137 138 132
0.152105 0.037698 0.436679 131 132 126
0.152617 0.038257 0.435260 135 136 130
0.152113 0.038592 0.433836 136 137 131
0.151608 0.038926 0.432411 137 138 132
0.151104 0.039261 0.430986 138 139 133
0.150600 0.039595 0.429561 135 138 131
0.150095 0.039929 0.428137 136 139 132
0.149591 0.040264 0.426712 136 139 132
0.150095 0.040828 0.425269 137 138 132
0.150597 0.041395 0.423819 136 137 131
0.150090 0.041730 0.422388 140 141 135
0.149584 0.042066 0.420958 141 142 136
0.149077 0.042402 0.419527 142 143 137
0.148571 0.042738 0.418096 139 140 134
0.148064 0.043074 0.416665 141 142 136
0.147558 0.043409 0.415234 139 140 134
0.147051 0.043745 0.413803 140 141 135
0.146545 0.044081 0.412373 140 141 136
0.146038 0.044417 0.410942 140 140 138
0.146528 0.044991 0.409459 141 141 141
0.145025 0.045089 0.408080 141 142 144
0.144519 0.045424 0.406649 147 148 150
0.144012 0.045760 0.405218 144 148 149
0.143506 0.046096 0.403788 146 150 149
0.142999 0.046432 0.402357 144 153 152
0.142493 0.046768 0.400926 142 148 148
0.142975 0.047347 0.399422 139 145 145
0.142468 0.047683 0.397988 140 144 143
0.142947 0.048264 0.396475 141 143 140
0.142438 0.048601 0.395038 139 141 136
0.142914 0.049185 0.393516 140 141 136
0.142405 0.049522 0.392076 141 142 137
0.141895 0.049860 0.390636 140 141 135
0.142367 0.050446 0.389102 143 144 138
0.141856 0.050785 0.387659 143 144 138
0.142324 0.051373 0.386116 140 141 135
0.141812 0.051713 0.384670 140 139 134
0.142278 0.052303 0.383117 142 141 136
0.141765 0.052643 0.381668 140 139 134
0.141252 0.052983 0.380219 143 140 135
0.140739 0.053323 0.378770 146 141 135
0.140226 0.053663 0.377321 145 140 134
0.139713 0.054003 0.375872 146 143 136
0.139200 0.054343 0.374423 144 141 134
0.138687 0.054684 0.372974 147 144 137
0.138174 0.055024 0.371525 143 143 135
0.137661 0.055364 0.370076 142 142 134
0.136182 0.055446 0.368764 143 143 135
0.006690 0.027155 0.367026 145 141 132
0.006314 0.027404 0.365965 142 139 132
0.004994 0.027381 0.365101 146 143 136
0.003676 0.027356 0.364243 146 142 139
0.001417 0.027056 0.363595 133 143 152
0.000104 0.027028 0.362753 147 175 196
-0.001207 0.026998 0.361916 148 185 204
-0.001576 0.027243 0.360874 149 187 210
-0.001946 0.027488 0.359831 149 187 210
-0.003252 0.027455 0.359006 151 189 212
-0.003620 0.027699 0.357967 151 189 210
-0.003988 0.027943 0.356927 150 188 209
-0.004356 0.028187 0.355887 149 187 208
-0.005658 0.028151 0.355078 152 190 211
-0.006025 0.028395 0.354041 151 189 210
-0.006392 0.028638 0.353004 152 188 210
-0.006758 0.028881 0.351968 150 188 211
-0.082761 0.012762 0.349399 118 154 178
-0.083951 0.012652 0.348906 118 158 184
-0.084237 0.012842 0.348096 124 166 190
-0.084524 0.013032 0.347287 125 170 193
-0.084810 0.013222 0.346477 126 172 195
-0.085995 0.013108 0.345999 129 177 199
-0.086280 0.013297 0.345192 132 179 199
-0.086565 0.013487 0.344386 137 183 206
-0.086851 0.013676 0.343580 139 185 209
-0.087136 0.013865 0.342773 144 190 214
-0.087422 0.014054 0.341967 146 192 216
-0.086816 0.014551 0.340812 150 197 223
-0.087102 0.014741 0.340002 153 200 230
-0.087389 0.014931 0.339193 157 203 237
-0.087675 0.015121 0.338383 162 206 245
-0.087962 0.015311 0.337574 165 209 248
-0.088248 0.015501 0.336765 169 212 254
-0.088535 0.015691 0.335955 170 213 255
-0.089705 0.015568 0.335516 169 212 254
-0.089991 0.015758 0.334710 171 214 255
-0.090276 0.015947 0.333903 170 214 253
-0.091442 0.015821 0.333476 166 210 249
-0.098459 0.027664 0.290718 163 159 150
-0.099872 0.027702 0.289594 113 103 78
-0.100990 0.027544 0.289303 27 20 4
-0.101281 0.027737 0.288482 16 17 11
-0.101571 0.027930 0.287660 15 16 10
-0.102685 0.027769 0.287382 12 13 8
-0.102974 0.027961 0.286563 11 14 7
-0.103264 0.028153 0.285745 9 14 8
-0.103554 0.028346 0.284926 9 14 8
-0.103844 0.028538 0.284108 9 14 8
-0.104133 0.028730 0.283289 8 13 9
-0.104423 0.028922 0.282471 10 15 11
-0.104713 0.029114 0.281652 13 18 14
-0.105817 0.028947 0.281401 9 14 10
-0.106105 0.029138 0.280585 11 15 14
-0.106394 0.029330 0.279770 13 17 16
-0.106683 0.029521 0.278954 8 13 9
-0.107781 0.029351 0.278718 11 16 12
-0.108068 0.029541 0.277906 9 14 10
-0.108356 0.029732 0.277093 12 16 15
-0.108644 0.029923 0.276281 9 13 12
-0.108931 0.030113 0.275469 13 15 14
-0.109219 0.030304 0.274656 13 15 14
-0.109506 0.030495 0.273844 13 15 14
-0.109794 0.030685 0.273031 19 19 17
-0.110883 0.030508 0.272822 20 18 6
-0.111169 0.030698 0.272013 118 113 84
-0.111456 0.030888 0.271204 166 159 133
0.052629 0.107248 0.144193 167 160 142
0.048934 0.106103 0.145222 168 163 144
0.049227 0.106808 0.143181 161 157 145
0.049517 0.107514 0.141135 163 159 148
0.049805 0.108222 0.139082 164 160 148
0.049299 0.108557 0.137651 162 158 146
0.049584 0.109267 0.135590 162 159 144
0.049076 0.109604 0.134156 163 160 145
0.048569 0.109940 0.132722 163 160 145
0.048061 0.110277 0.131288 158 155 140
0.047553 0.110613 0.129854 159 156 141
0.047046 0.110950 0.128420 159 156 141
0.046538 0.111286 0.126986 159 155 143
0.046031 0.111623 0.125552 162 158 146
0.045523 0.111959 0.124119 159 155 143
0.045016 0.112296 0.122685 160 156 145
0.044508 0.112633 0.121251 162 158 147
0.046873 0.115558 0.113598 157 153 144
0.045584 0.115515 0.112822 161 159 147
0.041195 0.113930 0.114758 158 156 144
0.040688 0.114266 0.113327 158 158 146
0.040182 0.114602 0.111896 162 162 150
0.039675 0.114938 0.110465 161 161 149
0.039940 0.115661 0.108346 161 161 149
0.039432 0.115998 0.106912 160 160 148
0.038925 0.116334 0.105478 162 162 150
0.039185 0.117061 0.103347 165 163 151
0.039443 0.117788 0.101209 166 164 152
0.040465 0.118908 0.098362 164 162 150
0.040718 0.119639 0.096210 162 160 148
0.040205 0.119980 0.094761 163 161 148
0.040455 0.120713 0.092599 162 159 144
0.039941 0.121054 0.091147 163 160 145
0.038666 0.121000 0.090414 165 159 143
0.037394 0.120945 0.089686 164 161 146
0.035366 0.120492 0.089690 164 162 147
0.034099 0.120433 0.088978 161 158 143
0.032834 0.120373 0.088272 164 161 146
0.031572 0.120311 0.087572 161 159 144
0.030311 0.120248 0.086878 163 161 148
0.029806 0.120583 0.085450 169 167 155
0.029300 0.120918 0.084022 168 168 156
0.161869 0.031605 0.468322 125 128 121
0.158250 0.031300 0.466692 127 130 123
0.157752 0.031630 0.465282 126 129 122
0.157253 0.031961 0.463873 125 128 121
0.156754 0.032292 0.462463 127 130 123
0.156255 0.032623 0.461053 129 132 125
0.155756 0.032954 0.459644 128 131 124
0.155257 0.033285 0.458234 129 132 125
0.154758 0.033615 0.456825 131 134 127
0.153228 0.033728 0.455369 132 133 127
0.152731 0.034058 0.453962 132 133 127
0.152233 0.034388 0.452556 132 133 127
0.152762 0.034939 0.451186 135 136 130
0.151237 0.035048 0.449742 135 136 130
0.150739 0.035378 0.448336 134 135 129
0.150241 0.035709 0.446929 131 132 126
0.149743 0.036039 0.445523 136 137 131
0.152310 0.037041 0.444182 136 137 131
0.148747 0.036699 0.442710 136 137 131
0.148249 0.037029 0.441303 134 135 129
0.147752 0.037359 0.439896 133 134 128
0.147254 0.037689 0.438490 135 136 130
0.146756 0.038019 0.437083 134 135 129
0.146258 0.038350 0.435677 138 139 133
0.145760 0.038680 0.434270 138 139 133
0.146275 0.039240 0.432861 138 139 133
0.144764 0.039340 0.431457 138 139 133
0.145277 0.039901 0.430042 136 137 131
0.143768 0.040000 0.428644 138 139 133
0.144279 0.040563 0.427223 139 140 134
0.143780 0.040894 0.425813 137 138 132
0.143281 0.041225 0.424403 136 137 131
0.143788 0.041790 0.422970 139 140 134
0.143288 0.042122 0.421557 143 144 138
0.142788 0.042453 0.420145 143 144 138
0.142288 0.042785 0.418732 140 141 135
0.140786 0.042879 0.417355 140 141 135
0.140287 0.043210 0.415946 138 139 133
0.140787 0.043780 0.414494 142 141 136
0.141285 0.044351 0.413037 141 140 136
0.140784 0.044683 0.411621 142 141 139
0.141279 0.045257 0.410154 141 139 140
0.140777 0.045590 0.408736 144 144 146
0.139281 0.045680 0.407374 144 144 146
0.138780 0.046012 0.405958 146 147 149
0.138279 0.046345 0.404543 148 150 149
0.137777 0.046677 0.403127 145 151 151
0.137276 0.047009 0.401711 145 149 150
0.136775 0.047341 0.400296 140 144 143
0.136274 0.047674 0.398880 143 145 144
0.135773 0.048006 0.397464 141 143 140
0.135272 0.048338 0.396049 141 142 137
0.134771 0.048670 0.394633 141 142 137
0.135253 0.049252 0.393130 140 141 135
0.135732 0.049836 0.391621 142 143 138
0.136210 0.050421 0.390106 140 141 136
0.137665 0.051259 0.388488 138 139 134
0.138137 0.051847 0.386958 141 140 135
0.138607 0.052437 0.385422 140 139 134
0.139075 0.053029 0.383880 141 140 135
0.138566 0.053366 0.382440 142 141 136
0.139030 0.053960 0.380888 143 142 137
0.138519 0.054299 0.379445 147 144 137
0.138009 0.054637 0.378002 144 141 134
0.137498 0.054976 0.376559 143 140 133
0.136987 0.055315 0.375116 147 144 137
0.136476 0.055653 0.373673 146 143 136
0.135966 0.055992 0.372230 147 144 137
0.136422 0.056591 0.370655 145 142 135
0.135910 0.056930 0.369209 149 146 139
0.005169 0.028219 0.366484 143 140 133
0.003850 0.028191 0.365623 144 141 134
0.002534 0.028163 0.364767 148 145 140
0.001219 0.028133 0.363918 130 141 147
-0.000093 0.028102 0.363074 143 172 190
-0.001404 0.028069 0.362237 149 184 204
-0.001773 0.028314 0.361194 148 186 207
-0.002142 0.028558 0.360151 147 185 208
-0.002511 0.028803 0.359109 148 186 209
-0.003816 0.028767 0.358286 150 188 209
-0.004184 0.029011 0.357247 151 189 210
-0.004552 0.029255 0.356207 151 189 210
-0.005853 0.029216 0.355397 151 189 210
-0.006220 0.029459 0.354360 149 187 208
-0.006587 0.029702 0.353323 151 187 209
-0.006954 0.029946 0.352287 150 188 211
-0.082914 0.013596 0.349649 114 151 177
-0.083202 0.013787 0.348837 116 158 183
-0.083489 0.013977 0.348024 122 164 189
-0.084676 0.013863 0.347536 124 169 192
-0.084963 0.014053 0.346726 126 172 195
-0.086146 0.013936 0.346247 127 178 199
-0.086432 0.014125 0.345440 132 180 202
-0.086717 0.014314 0.344634 135 183 205
-0.087003 0.014504 0.343828 138 186 209
-0.087288 0.014693 0.343021 141 189 212
-0.086682 0.015192 0.341870 143 191 214
-0.086968 0.015382 0.341061 146 193 219
-0.087255 0.015572 0.340251 150 197 227
-0.087541 0.015762 0.339442 156 202 236
-0.087828 0.015952 0.338632 159 204 243
-0.088114 0.016142 0.337823 162 207 246
-0.087515 0.016647 0.336650 164 209 250
-0.087803 0.016837 0.335838 165 210 252
-0.088974 0.016712 0.335395 165 210 252
-0.089260 0.016902 0.334585 168 211 254
-0.090428 0.016775 0.334151 169 212 254
-0.090713 0.016964 0.333345 165 208 250
-0.097787 0.028866 0.290449 161 157 146
-0.098908 0.028708 0.290145 139 133 117
-0.100027 0.028548 0.289848 118 106 82
-0.101144 0.028388 0.289556 25 18 2
-0.101435 0.028580 0.288734 16 17 11
-0.101726 0.028773 0.287913 14 15 10
-0.102017 0.028966 0.287091 12 12 10
-0.102308 0.029159 0.286270 12 14 9
-0.103418 0.028994 0.285996 9 14 10
-0.103708 0.029186 0.285178 10 15 11
-0.103998 0.029378 0.284359 10 15 11
-0.104287 0.029570 0.283541 9 14 8
-0.104577 0.029762 0.282722 9 14 10
-0.104867 0.029954 0.281904 11 16 12
-0.105970 0.029784 0.281652 12 18 16
-0.106259 0.029976 0.280836 9 15 13
-0.106547 0.030167 0.280021 10 16 14
-0.106836 0.030358 0.279205 9 14 10
-0.107934 0.030185 0.278968 12 17 13
-0.108221 0.030375 0.278156 12 17 13
-0.108509 0.030566 0.277343 11 15 14
-0.108797 0.030757 0.276531 10 14 13
-0.109084 0.030947 0.275718 14 16 15
-0.109372 0.031138 0.274906 14 16 13
-0.109659 0.031329 0.274094 15 17 14
-0.109947 0.031519 0.273281 21 22 17
-0.111035 0.031339 0.273071 25 23 8
-0.111322 0.031529 0.272262 121 116 86
-0.111608 0.031719 0.271453 165 155 130
0.045980 0.105737 0.149527 169 161 148
0.046278 0.106442 0.147503 169 163 147
0.045778 0.106773 0.146090 165 163 150
0.046072 0.107480 0.144057 165 161 152
0.046364 0.108188 0.142017 165 161 150
0.045861 0.108521 0.140599 162 158 146
0.045359 0.108854 0.139180 161 157 145
0.044857 0.109187 0.137761 163 160 145
0.044355 0.109520 0.136343 163 160 145
0.043853 0.109853 0.134924 164 161 144
0.043350 0.110186 0.133505 162 159 142
0.042848 0.110519 0.132086 161 158 141
0.042346 0.110852 0.130668 161 157 145
0.041060 0.110802 0.129900 162 158 146
0.040559 0.111135 0.128484 164 160 148
0.039277 0.111083 0.127726 161 159 146
0.037997 0.111031 0.126973 162 160 147
0.036719 0.110976 0.126227 167 163 152
0.036221 0.111307 0.124820 162 158 147
0.035723 0.111637 0.123414 170 166 155
0.035225 0.111967 0.122007 162 160 148
0.034727 0.112297 0.120601 163 161 149
0.035003 0.113016 0.118516 164 162 150
0.035277 0.113736 0.116425 165 163 151
0.035548 0.114457 0.114328 165 163 151
0.035047 0.114789 0.112912 167 165 153
0.035315 0.115513 0.110806 164 164 152
0.034813 0.115846 0.109387 163 163 151
0.035078 0.116572 0.107272 168 166 154
0.035341 0.117299 0.105150 168 166 154
0.036367 0.118422 0.102320 169 167 155
0.036625 0.119153 0.100184 167 165 153
0.036880 0.119885 0.098041 167 165 153
0.036372 0.120222 0.096604 167 163 151
0.036624 0.120956 0.094453 165 162 147
0.035354 0.120896 0.093730 166 163 148
0.034087 0.120835 0.093014 165 162 147
0.032064 0.120373 0.093028 163 160 145
0.031559 0.120708 0.091600 166 163 148
0.029542 0.120242 0.091632 166 163 148
0.028285 0.120175 0.090944 162 160 145
0.027029 0.120106 0.090261 167 165 152
0.025776 0.120035 0.089584 171 169 156
0.025276 0.120367 0.088172 170 170 158
0.153288 0.031340 0.468163 130 131 125
0.152794 0.031667 0.466769 127 128 122
0.152300 0.031995 0.465375 128 129 123
0.150771 0.032105 0.463915 129 130 124
0.150278 0.032431 0.462523 128 129 123
0.149786 0.032758 0.461132 128 129 123
0.149293 0.033084 0.459740 132 133 127
0.148801 0.033411 0.458349 131 132 126
0.148308 0.033737 0.456958 131 132 126
0.148845 0.034286 0.455613 131 132 126
0.149380 0.034835 0.454263 131 132 126
0.149913 0.035386 0.452906 131 132 126
0.149417 0.035715 0.451506 132 133 127
0.148921 0.036044 0.450105 130 131 125
0.148426 0.036372 0.448705 135 136 130
0.146907 0.036475 0.447275 136 137 131
0.146412 0.036803 0.445878 136 137 131
0.144896 0.036904 0.444458 135 136 130
0.144403 0.037231 0.443063 134 135 129
0.144928 0.037787 0.441685 134 135 129
0.144433 0.038115 0.440288 134 135 129
0.142922 0.038213 0.438880 135 136 130
0.142428 0.038540 0.437485 135 136 130
0.140920 0.038636 0.436086 136 137 131
0.140427 0.038962 0.434695 140 141 135
0.140947 0.039522 0.433302 139 140 134
0.140454 0.039849 0.431907 137 138 132
0.139960 0.040177 0.430513 138 139 133
0.139467 0.040504 0.429118 139 140 134
0.139981 0.041067 0.427710 138 139 133
0.139486 0.041395 0.426313 138 139 133
0.139998 0.041960 0.424896 142 143 137
0.140507 0.042527 0.423473 139 140 134
0.139006 0.042618 0.422095 141 142 136
0.138510 0.042946 0.420694 138 139 133
0.138015 0.043275 0.419294 138 139 133
0.137519 0.043604 0.417893 139 140 134
0.137023 0.043932 0.416493 140 141 135
0.137526 0.044503 0.415051 140 141 135
0.138027 0.045076 0.413604 141 142 137
0.138525 0.045649 0.412150 141 142 137
0.138026 0.045980 0.410741 144 144 142
0.137527 0.046311 0.409331 143 143 141
0.136035 0.046396 0.407977 145 145 145
0.135537 0.046726 0.406571 147 149 148
0.134048 0.046809 0.405226 147 148 150
0.133551 0.047139 0.403823 148 149 151
0.132066 0.047219 0.402487 143 145 144
0.131570 0.047548 0.401087 142 144 143
0.131074 0.047877 0.399686 141 143 140
0.130578 0.048205 0.398286 140 140 138
0.130083 0.048534 0.396885 141 142 137
0.130570 0.049115 0.395401 140 141 135
0.130073 0.049444 0.393998 143 144 138
0.130558 0.050027 0.392505 144 143 139
0.131040 0.050612 0.391006 142 141 137
0.132500 0.051453 0.389406 139 138 134
0.134933 0.052552 0.387695 140 139 134
0.135406 0.053143 0.386168 141 140 135
0.135876 0.053735 0.384636 140 139 134
0.136345 0.054329 0.383098 140 139 134
0.136811 0.054924 0.381553 141 140 135
0.136302 0.055261 0.380116 146 143 136
0.136765 0.055859 0.378563 146 143 136
0.136256 0.056197 0.377123 145 142 135
0.135746 0.056535 0.375683 148 145 138
0.135236 0.056873 0.374243 146 143 136
0.134727 0.057210 0.372803 146 143 136
0.135183 0.057812 0.371231 147 144 137
0.005345 0.029056 0.367868 146 139 131
0.004025 0.029027 0.367002 144 139 133
0.003652 0.029275 0.365947 146 141 135
0.002336 0.029243 0.365091 148 145 140
0.001022 0.029210 0.364240 134 145 151
-0.000290 0.029175 0.363396 146 175 193
-0.000660 0.029421 0.362350 148 183 202
-0.001969 0.029384 0.361515 148 184 206
-0.002338 0.029629 0.360472 148 186 207
-0.002707 0.029874 0.359429 148 186 207
-0.004012 0.029834 0.358606 149 187 208
-0.004380 0.030078 0.357567 149 187 210
-0.004748 0.030322 0.356527 149 187 210
-0.006048 0.030280 0.355716 150 188 211
-0.006415 0.030523 0.354679 149 187 210
-0.006782 0.030767 0.353642 150 186 208
-0.007149 0.031010 0.352605 148 186 209
-0.007516 0.031253 0.351569 150 188 209
-0.083067 0.014430 0.349899 115 152 178
-0.083355 0.014621 0.349087 115 157 182
-0.083642 0.014811 0.348274 120 162 187
-0.084828 0.014694 0.347785 121 166 189
-0.085115 0.014884 0.346975 123 169 192
-0.086298 0.014764 0.346495 126 174 197
-0.086583 0.014953 0.345688 130 178 201
-0.086869 0.015142 0.344882 132 180 203
-0.087154 0.015332 0.344076 136 184 207
-0.087440 0.015521 0.343269 139 187 210
-0.086834 0.016023 0.342119 141 189 212
-0.087121 0.016213 0.341309 144 191 217
-0.087407 0.016403 0.340500 147 194 224
-0.087694 0.016593 0.339691 151 200 233
-0.087093 0.017100 0.338525 154 202 240
-0.087381 0.017290 0.337713 157 205 243
-0.086784 0.017799 0.336538 159 207 247
-0.087072 0.017990 0.335723 163 208 250
-0.088243 0.017862 0.335275 163 207 252
-0.089413 0.017733 0.334834 164 209 251
-0.089699 0.017923 0.334025 166 211 253
-0.090865 0.017792 0.333593 162 207 248
-0.099064 0.029558 0.290400 136 129 110
-0.099357 0.029752 0.289572 129 115 88
-0.100474 0.029589 0.289277 24 15 0
-0.101590 0.029424 0.288987 16 17 11
-0.101881 0.029617 0.288166 15 16 11
-0.102171 0.029810 0.287344 14 14 12
-0.102462 0.030002 0.286523 13 15 12
-0.102753 0.030195 0.285701 11 15 14
-0.103044 0.030388 0.284879 11 16 12
-0.104152 0.030218 0.284611 10 15 11
-0.104441 0.030410 0.283793 10 15 9
-0.104731 0.030602 0.282974 10 15 11
-0.105021 0.030795 0.282156 11 16 12
-0.105311 0.030987 0.281337 10 16 14
-0.106412 0.030813 0.281087 8 14 12
-0.106701 0.031004 0.280272 10 16 16
-0.106989 0.031196 0.279456 9 14 10
-0.107278 0.031387 0.278641 10 15 11
-0.108374 0.031209 0.278406 12 17 13
-0.108662 0.031400 0.277593 11 16 12
-0.108949 0.031591 0.276781 11 16 12
-0.109237 0.031781 0.275968 14 16 13
-0.109525 0.031972 0.275156 14 16 13
-0.109812 0.032163 0.274343 16 18 15
-0.110100 0.032353 0.273531 22 23 18
-0.111187 0.032170 0.273320 28 25 8
-0.111474 0.032360 0.272511 123 117 85
-0.111760 0.032550 0.271702 175 164 142
0.042528 0.105681 0.152404 170 160 148
0.042033 0.106009 0.151007 173 167 151
0.041539 0.106337 0.149609 168 166 153
0.042631 0.107421 0.146972 168 164 155
0.042134 0.107750 0.145568 165 162 153
0.042429 0.108459 0.143539 166 164 152
0.041931 0.108789 0.142132 165 163 150
0.042222 0.109500 0.140094 163 161 148
0.040935 0.109450 0.139319 164 161 146
0.040437 0.109780 0.137912 165 162 147
0.039939 0.110110 0.136506 165 162 147
0.038656 0.110056 0.135743 163 160 143
0.038160 0.110385 0.134340 163 159 147
0.036880 0.110330 0.133586 165 161 149
0.036384 0.110658 0.132186 164 162 149
0.035108 0.110600 0.131442 164 162 149
0.033833 0.110541 0.130703 163 161 148
0.033340 0.110868 0.129309 165 163 150
0.032069 0.110807 0.128580 168 164 152
0.031576 0.111133 0.127188 168 164 152
0.031084 0.111460 0.125797 164 162 150
0.031365 0.112177 0.123731 165 163 151
0.031645 0.112896 0.121659 166 164 152
0.031922 0.113617 0.119581 162 160 148
0.032198 0.114338 0.117497 167 165 153
0.032471 0.115062 0.115407 167 165 153
0.031973 0.115392 0.114000 164 164 152
0.031475 0.115722 0.112594 162 162 150
0.030977 0.116052 0.111187 162 160 148
0.030479 0.116382 0.109781 168 166 154
0.029981 0.116712 0.108374 167 165 153
0.030247 0.117440 0.106263 168 166 154
0.030510 0.118170 0.104145 167 165 153
0.030772 0.118901 0.102022 164 162 150
0.031031 0.119633 0.099892 164 162 150
0.031288 0.120367 0.097757 167 163 151
0.030784 0.120701 0.096335 165 161 149
0.029524 0.120632 0.095636 164 161 146
0.027510 0.120159 0.095669 167 164 149
0.026255 0.120087 0.094986 165 162 147
0.025002 0.120013 0.094308 165 163 148
0.024504 0.120344 0.092902 167 165 152
0.023255 0.120268 0.092233 165 166 152
0.022758 0.120597 0.090830 171 171 159
0.148381 0.032223 0.466909 128 129 123
0.147892 0.032547 0.465527 130 129 124
0.147402 0.032872 0.464144 130 129 124
0.147947 0.033417 0.462825 131 130 125
0.146424 0.033521 0.461380 132 131 126
0.145934 0.033845 0.459997 131 132 126
0.145445 0.034170 0.458615 130 131 125
0.144956 0.034494 0.457233 130 131 125
0.145496 0.035043 0.455898 130 131 125
0.146033 0.035594 0.454558 129 130 124
0.146569 0.036146 0.453211 130 131 125
0.146076 0.036472 0.451820 133 134 128
0.145583 0.036799 0.450428 136 137 131
0.145091 0.037125 0.449037 134 135 129
0.145621 0.037681 0.447675 133 134 128
0.143084 0.037549 0.446227 133 134 128
0.142593 0.037875 0.444839 133 134 128
0.141082 0.037969 0.443430 135 136 130
0.141610 0.038526 0.442062 135 136 130
0.139611 0.038945 0.439274 136 137 131
0.139120 0.039270 0.437888 135 136 130
0.137616 0.039360 0.436497 136 137 131
0.137127 0.039685 0.435115 139 140 134
0.137649 0.040245 0.433732 138 139 133
0.137159 0.040571 0.432347 138 139 133
0.136668 0.040896 0.430962 137 138 132
0.136178 0.041221 0.429576 138 139 133
0.136695 0.041785 0.428178 139 140 134
0.136204 0.042111 0.426790 138 139 133
0.135712 0.042437 0.425401 137 138 132
0.136225 0.043004 0.423991 137 138 132
0.134729 0.043088 0.422625 139 140 134
0.134238 0.043414 0.421236 136 137 131
0.133746 0.043740 0.419848 137 138 132
0.133255 0.044066 0.418459 140 141 135
0.133763 0.044636 0.417034 140 141 135
0.133270 0.044963 0.415643 143 145 140
0.135768 0.046028 0.414122 140 143 136
0.137264 0.046850 0.412630 142 145 138
0.134777 0.046685 0.411321 143 144 139
0.133287 0.046766 0.409973 144 145 140
0.132792 0.047094 0.408575 144 146 143
0.131306 0.047172 0.407236 146 148 147
0.130813 0.047499 0.405842 145 146 148
0.129330 0.047575 0.404511 148 148 148
0.128837 0.047902 0.403120 145 145 145
0.127357 0.047976 0.401799 144 144 142
0.126866 0.048302 0.400410 143 143 141
0.126374 0.048628 0.399022 142 143 138
0.125883 0.048954 0.397633 139 140 135
0.126374 0.049535 0.396163 141 142 136
0.126864 0.050117 0.394686 138 139 133
0.127351 0.050701 0.393203 141 140 136
0.127836 0.051287 0.391714 140 139 135
0.130276 0.052390 0.390030 140 139 135
0.131732 0.053238 0.388425 142 141 137
0.134161 0.054349 0.386708 141 140 135
0.134632 0.054944 0.385180 141 140 135
0.135101 0.055540 0.383645 140 139 134
0.134594 0.055876 0.382214 139 140 134
0.134088 0.056212 0.380784 141 141 133
0.134552 0.056811 0.379237 143 143 135
0.135015 0.057411 0.377684 146 143 136
0.134506 0.057748 0.376247 146 143 136
0.133997 0.058086 0.374811 143 140 133
0.133489 0.058423 0.373374 147 144 137
0.133946 0.059027 0.371806 148 143 137
0.003827 0.030110 0.367327 145 140 134
0.003453 0.030358 0.366272 146 141 135
0.002138 0.030323 0.365414 145 142 137
0.000824 0.030287 0.364563 134 145 151
0.000453 0.030533 0.363514 142 171 189
-0.000857 0.030495 0.362672 147 182 201
-0.001227 0.030740 0.361626 149 185 207
-0.002534 0.030700 0.360793 148 186 207
-0.002904 0.030944 0.359750 148 186 207
-0.004207 0.030902 0.358926 149 187 208
-0.004575 0.031146 0.357886 149 187 210
-0.004943 0.031390 0.356847 148 186 209
-0.005312 0.031634 0.355807 147 185 208
-0.006610 0.031588 0.354998 148 186 209
-0.006977 0.031831 0.353961 152 188 210
-0.007344 0.032074 0.352924 149 187 210
-0.082030 0.015382 0.350652 110 146 168
-0.083220 0.015264 0.350149 112 149 175
-0.083507 0.015455 0.349337 114 155 183
-0.083795 0.015646 0.348524 120 162 187
-0.084981 0.015525 0.348034 120 165 188
-0.085267 0.015715 0.347224 123 169 192
-0.086450 0.015592 0.346743 125 173 196
-0.086735 0.015781 0.345936 128 176 199
-0.087021 0.015970 0.345130 131 179 202
-0.086413 0.016475 0.343987 135 183 206
-0.086700 0.016664 0.343177 138 186 209
-0.086986 0.016854 0.342368 139 187 210
-0.086383 0.017362 0.341212 142 192 217
-0.086671 0.017552 0.340400 144 193 223
-0.086958 0.017743 0.339587 149 197 233
-0.087246 0.017934 0.338775 152 200 238
-0.086648 0.018444 0.337604 155 203 241
-0.086937 0.018636 0.336789 157 205 245
-0.087226 0.018827 0.335974 160 207 249
-0.087514 0.019019 0.335158 162 209 253
-0.088684 0.018887 0.334713 163 210 254
-0.088972 0.019078 0.333901 162 209 251
-0.090138 0.018944 0.333464 160 205 247
-0.100629 0.030435 0.289530 21 12 0
-0.101744 0.030267 0.289240 17 16 11
-0.102035 0.030460 0.288418 15 15 13
-0.102326 0.030653 0.287597 12 12 12
-0.102617 0.030846 0.286775 12 14 13
-0.102908 0.031039 0.285954 10 14 15
-0.103198 0.031231 0.285132 10 16 12
-0.103489 0.031424 0.284311 8 14 10
-0.104596 0.031251 0.284044 11 16 12
-0.104885 0.031443 0.283226 10 15 11
-0.105175 0.031635 0.282407 9 15 11
-0.105465 0.031827 0.281589 9 15 13
-0.105754 0.032019 0.280770 8 14 14
-0.106854 0.031841 0.280522 8 17 16
-0.107143 0.032033 0.279707 10 14 13
-0.107432 0.032224 0.278891 11 16 12
-0.107720 0.032415 0.278076 12 17 13
-0.108815 0.032234 0.277843 10 15 11
-0.109102 0.032425 0.277031 12 17 13
-0.109390 0.032616 0.276218 14 16 13
-0.109678 0.032806 0.275406 16 18 13
-0.109965 0.032997 0.274593 17 19 14
-0.110253 0.033188 0.273781 23 22 18
-0.110540 0.033378 0.272969 39 36 19
-0.110828 0.033569 0.272156 130 124 90
-0.111913 0.033381 0.271950 171 160 138
0.038284 0.105220 0.155883 173 163 153
0.037795 0.105544 0.154501 170 164 148
0.038099 0.106249 0.152502 169 167 154
0.037609 0.106574 0.151117 171 166 160
0.037119 0.106900 0.149732 168 165 156
0.037419 0.107607 0.147721 169 166 157
0.036927 0.107933 0.146333 167 165 153
0.036436 0.108259 0.144945 164 162 149
0.036732 0.108970 0.142922 163 161 146
0.036240 0.109296 0.141531 165 162 147
0.035747 0.109623 0.140139 166 163 148
0.035255 0.109949 0.138748 165 162 147
0.033979 0.109888 0.138003 163 159 147
0.033487 0.110214 0.136614 166 162 151
0.032215 0.110151 0.135878 164 162 149
0.030944 0.110086 0.135148 162 160 147
0.030455 0.110411 0.133766 165 163 150
0.029187 0.110344 0.133045 167 165 152
0.028699 0.110668 0.131665 169 166 151
0.028987 0.111384 0.129619 170 167 152
0.028497 0.111709 0.128236 169 167 155
0.028008 0.112033 0.126854 168 165 156
0.028291 0.112752 0.124795 167 164 155
0.027801 0.113077 0.123410 167 164 155
0.028081 0.113799 0.121342 165 162 153
0.027590 0.114124 0.119953 166 163 154
0.027098 0.114450 0.118565 167 167 157
0.026607 0.114776 0.117177 166 166 156
0.025349 0.114703 0.116483 168 166 154
0.024094 0.114628 0.115795 165 163 151
0.022840 0.114552 0.115114 167 164 155
0.022352 0.114876 0.113734 169 166 157
0.022626 0.115602 0.111648 171 168 159
0.022897 0.116329 0.109556 169 166 157
0.023926 0.117460 0.106745 166 164 152
0.024951 0.118595 0.103922 165 163 151
0.026729 0.120137 0.100367 167 163 151
0.026231 0.120467 0.098961 168 164 152
0.024978 0.120391 0.098279 165 162 147
0.023727 0.120314 0.097604 166 163 148
0.023231 0.120642 0.096203 168 166 151
0.021983 0.120563 0.095537 169 167 154
0.021488 0.120891 0.094139 168 169 155
0.020243 0.120809 0.093482 171 171 159
0.147084 0.033420 0.467261 128 129 123
0.144524 0.033298 0.465741 130 131 125
0.144037 0.033620 0.464368 130 131 125
0.143551 0.033943 0.462995 130 131 125
0.143065 0.034265 0.461622 130 131 125
0.141547 0.034362 0.460190 129 130 124
0.142093 0.034910 0.458875 129 130 124
0.141607 0.035232 0.457502 130 131 125
0.143178 0.036010 0.456226 131 132 126
0.144744 0.036791 0.454939 133 134 128
0.135816 0.039981 0.438286 137 138 132
0.135329 0.040304 0.436910 137 138 132
0.135854 0.040866 0.435537 141 142 136
0.134355 0.040950 0.434157 138 139 133
0.133867 0.041273 0.432781 137 138 132
0.133380 0.041596 0.431405 142 143 138
0.134909 0.042402 0.430011 138 139 134
0.134420 0.042726 0.428629 139 140 135
0.131504 0.045569 0.417534 139 140 134
0.131013 0.045895 0.416149 142 143 137
0.133519 0.047872 0.411800 143 144 139
0.132031 0.047949 0.410454 146 147 142
0.129553 0.047772 0.409168 142 144 141
0.130053 0.048351 0.407722 146 148 147
0.127581 0.048171 0.406451 145 147 146
0.127090 0.048496 0.405066 146 148 147
0.126600 0.048821 0.403680 143 145 142
0.125123 0.048890 0.402364 143 145 142
0.124633 0.049215 0.400982 143 144 139
0.123160 0.049282 0.399675 139 140 135
0.122671 0.049606 0.398296 143 144 138
0.123165 0.050188 0.396835 139 140 134
0.123657 0.050772 0.395368 139 138 133
0.125127 0.051617 0.393808 141 140 135
0.125614 0.052204 0.392326 141 140 135
0.133312 0.058017 0.379793 145 142 135
0.133775 0.058619 0.378244 146 143 136
0.133267 0.058956 0.376810 145 142 135
0.132760 0.059292 0.375376 146 143 136
0.132252 0.059629 0.373943 146 143 134
0.002312 0.031156 0.366790 144 141 134
0.001940 0.031403 0.365738 141 140 135
0.000627 0.031364 0.364886 130 139 144
0.000256 0.031610 0.363837 144 171 190
-0.001054 0.031568 0.362994 149 186 205
-0.001424 0.031814 0.361948 147 185 206
-0.002731 0.031770 0.361114 148 186 207
-0.003100 0.032015 0.360071 148 186 207
-0.004403 0.031969 0.359246 148 186 207
-0.004771 0.032213 0.358206 150 188 211
-0.005139 0.032457 0.357166 151 187 211
-0.006438 0.032409 0.356354 149 185 209
-0.006805 0.032652 0.355317 149 185 209
-0.007172 0.032896 0.354280 148 186 207
-0.007539 0.033139 0.353243 148 186 209
-0.082183 0.016219 0.350903 112 144 165
-0.083373 0.016098 0.350399 112 150 173
-0.083660 0.016289 0.349587 116 156 181
-0.083948 0.016480 0.348774 118 160 184
-0.085133 0.016356 0.348283 118 164 187
-0.085420 0.016546 0.347473 120 168 190
-0.085706 0.016736 0.346664 126 172 196
-0.085993 0.016926 0.345854 129 175 199
-0.086279 0.017116 0.345045 132 178 202
-0.086566 0.017306 0.344236 136 182 206
-0.086852 0.017495 0.343426 138 186 209
-0.086249 0.018005 0.342275 140 187 213
-0.086536 0.018196 0.341462 139 189 216
-0.086824 0.018386 0.340650 143 192 222
-0.087111 0.018577 0.339837 147 196 229
-0.086513 0.019090 0.338671 151 200 233
-0.086802 0.019282 0.337855 154 202 240
-0.086207 0.019797 0.336679 156 205 245
-0.086497 0.019989 0.335861 158 207 250
-0.086786 0.020181 0.335042 161 208 252
-0.087076 0.020373 0.334224 160 207 249
-0.088245 0.020238 0.333778 160 207 249
-0.100785 0.031282 0.289784 20 13 0
-0.101077 0.031475 0.288959 16 16 8
-0.101368 0.031669 0.288135 16 17 12
-0.102481 0.031496 0.287849 12 14 9
-0.102771 0.031689 0.287028 11 16 9
-0.103062 0.031882 0.286206 11 12 14
-0.103353 0.032075 0.285385 8 14 10
-0.103644 0.032268 0.284563 8 15 8
-0.103935 0.032460 0.283742 9 16 9
-0.105039 0.032283 0.283478 9 15 11
-0.105329 0.032475 0.282659 9 15 11
-0.105619 0.032667 0.281841 9 15 11
-0.105908 0.032859 0.281022 11 17 15
-0.107008 0.032679 0.280773 10 16 14
-0.107296 0.032870 0.279958 9 14 10
-0.107585 0.033061 0.279142 11 16 10
-0.107874 0.033253 0.278327 13 18 12
-0.108162 0.033444 0.277511 13 15 12
-0.109255 0.033259 0.277281 16 18 15
-0.109543 0.033450 0.276468 15 17 14
-0.109830 0.033640 0.275656 14 19 15
-0.110118 0.033831 0.274843 15 20 16
-0.110406 0.034022 0.274031 20 22 17
-0.110693 0.034212 0.273218 59 52 34
-0.110981 0.034403 0.272406 134 125 94
0.033733 0.104026 0.161326 171 163 142
0.033250 0.104346 0.159962 169 163 147
0.033562 0.105049 0.157986 172 166 150
0.033078 0.105370 0.156618 167 165 152
0.031801 0.105306 0.155869 167 165 153
0.031318 0.105627 0.154505 172 170 158
0.030835 0.105947 0.153141 167 165 153
0.031142 0.106653 0.151150 168 166 154
0.030658 0.106974 0.149782 167 167 155
0.030174 0.107295 0.148415 163 163 151
0.030476 0.108005 0.146412 163 161 148
0.029991 0.108326 0.145042 165 163 148
0.029506 0.108648 0.143671 165 164 146
0.029021 0.108969 0.142301 167 165 150
0.028536 0.109291 0.140931 166 164 151
0.027270 0.109220 0.140212 169 167 152
0.026786 0.109541 0.138845 168 166 151
0.026302 0.109862 0.137478 164 162 147
0.025818 0.110183 0.136111 169 166 151
0.025334 0.110504 0.134743 172 169 154
0.024850 0.110825 0.133376 169 166 151
0.025141 0.111542 0.131340 166 164 151
0.024656 0.111864 0.129969 167 165 152
0.024171 0.112185 0.128599 168 166 153
0.024456 0.112905 0.126550 168 166 153
0.023970 0.113228 0.125177 168 166 154
0.023484 0.113550 0.123804 162 162 152
0.022998 0.113872 0.122431 168 168 158
0.021745 0.113793 0.121748 169 170 162
0.019729 0.113310 0.121765 168 168 156
0.018482 0.113228 0.121098 167 165 153
0.017237 0.113144 0.120437 165 163 151
0.016756 0.113462 0.119079 167 164 155
0.017036 0.114186 0.117015 169 166 157
0.016555 0.114506 0.115654 169 166 157
0.016073 0.114825 0.114292 168 165 156
0.017107 0.115959 0.111501 166 163 154
0.018894 0.117503 0.107980 167 164 155
0.019919 0.118643 0.105162 168 166 154
0.020939 0.119786 0.102331 170 168 155
0.021202 0.120522 0.100216 168 164 152
0.019956 0.120438 0.099554 165 161 149
0.018713 0.120352 0.098899 171 169 156
0.017472 0.120265 0.098250 170 168 156
0.016233 0.120177 0.097607 173 171 159
0.125830 0.048756 0.408375 146 148 147
0.125341 0.049080 0.406996 146 148 147
0.123865 0.049146 0.405679 144 146 145
0.124365 0.049727 0.404237 142 144 141
0.122890 0.049792 0.402926 141 143 140
0.122403 0.050115 0.401550 141 142 137
0.121916 0.050438 0.400174 144 145 140
0.122412 0.051022 0.398720 141 142 137
0.002486 0.031989 0.368165 146 141 137
0.002114 0.032236 0.367113 143 143 135
0.000801 0.032194 0.366257 140 139 134
0.000429 0.032440 0.365208 128 137 142
0.000058 0.032687 0.364159 144 169 189
-0.001251 0.032642 0.363315 145 182 201
-0.001621 0.032888 0.362269 147 185 206
-0.002927 0.032841 0.361434 147 185 206
-0.003296 0.033086 0.360392 148 186 207
-0.003665 0.033330 0.359349 148 186 207
-0.004967 0.033281 0.358526 147 185 208
-0.005335 0.033525 0.357486 148 186 209
-0.006633 0.033473 0.356672 147 185 208
-0.007000 0.033717 0.355636 147 185 208
-0.007367 0.033960 0.354599 149 187 208
-0.007734 0.034203 0.353562 146 187 209
-0.079953 0.017301 0.352181 117 135 145
-0.081146 0.017179 0.351664 112 139 158
-0.081436 0.017371 0.350846 111 148 167
-0.082626 0.017248 0.350338 107 149 171
-0.083813 0.017123 0.349836 114 156 181
-0.084101 0.017314 0.349024 117 162 185
-0.084388 0.017504 0.348212 117 165 187
-0.085572 0.017377 0.347722 118 168 191
-0.085859 0.017567 0.346913 122 172 197
-0.086145 0.017757 0.346103 128 176 199
-0.086432 0.017947 0.345294 131 179 202
-0.085826 0.018458 0.344149 132 180 203
-0.086114 0.018648 0.343337 134 184 207
-0.086402 0.018839 0.342525 136 186 211
-0.085801 0.019353 0.341368 138 189 216
-0.086089 0.019545 0.340552 142 193 224
-0.086378 0.019736 0.339737 147 198 229
-0.085781 0.020253 0.338568 150 199 232
-0.086071 0.020445 0.337750 156 201 240
-0.085478 0.020964 0.336572 156 203 245
-0.085769 0.021157 0.335750 158 205 251
-0.086060 0.021350 0.334929 159 206 252
-0.086350 0.021543 0.334107 163 207 252
-0.086641 0.021735 0.333286 164 208 253
-0.086932 0.021928 0.332464 160 204 249
-0.100940 0.032128 0.290038 16 8 0
-0.101232 0.032322 0.289213 17 14 9
-0.101524 0.032515 0.288388 15 15 13
-0.101815 0.032709 0.287564 10 15 9
-0.102107 0.032902 0.286739 10 16 6
-0.102399 0.033096 0.285915 12 13 15
-0.103508 0.032918 0.285638 10 15 11
-0.103798 0.033111 0.284816 10 15 9
-0.104089 0.033304 0.283995 10 15 9
-0.104380 0.033497 0.283173 9 14 10
-0.105483 0.033316 0.282911 10 15 11
-0.105773 0.033508 0.282092 10 15 11
-0.106063 0.033700 0.281274 10 15 11
-0.107161 0.033516 0.281024 11 16 12
-0.107450 0.033707 0.280209 10 15 9
-0.107739 0.033899 0.279393 14 19 13
-0.108027 0.034090 0.278578 12 17 11
-0.108316 0.034281 0.277762 14 16 11
-0.108605 0.034473 0.276947 14 19 13
-0.109696 0.034284 0.276718 12 17 11
-0.109983 0.034474 0.275906 15 20 14
-0.110271 0.034665 0.275093 17 22 16
-0.110559 0.034856 0.274281 23 25 20
-0.110846 0.035046 0.273468 70 63 44
-0.111134 0.035237 0.272656 142 131 103
0.027903 0.102734 0.165980 164 158 136
0.028223 0.103434 0.164029 172 166 150
0.028540 0.104136 0.162072 171 168 151
0.028063 0.104453 0.160723 170 168 155
0.026793 0.104382 0.159991 168 166 153
0.026317 0.104698 0.158645 169 167 154
0.025051 0.104625 0.157922 173 171 158
0.024575 0.104940 0.156579 171 169 157
0.024100 0.105255 0.155236 164 164 152
0.023625 0.105571 0.153894 162 162 150
0.023935 0.106278 0.151915 167 165 152
0.024243 0.106986 0.149931 164 162 147
0.023765 0.107302 0.148582 165 164 146
0.023288 0.107619 0.147233 164 162 147
0.022810 0.107936 0.145884 164 162 147
0.023113 0.108648 0.143885 167 165 150
0.022634 0.108965 0.142533 170 167 150
0.022155 0.109282 0.141181 168 165 148
0.021677 0.109600 0.139829 167 164 147
0.021198 0.109917 0.138477 164 161 146
0.020720 0.110234 0.137125 167 164 149
0.020241 0.110551 0.135773 167 165 150
